VERSION 0.7
FIELDS x y z
SIZE 4 4 4
TYPE F F F
COUNT 1 1 1
WIDTH 1169
HEIGHT 1
VIEWPOINT 0.0 0.0 0.0 1.0 0.0 0.0 0.0
POINTS 1169
DATA ascii
0.0011308193 0.0017943382 -0.0829644203
0.0005689859 0.0021815896 -0.1100358963
-0.0013139248 -0.0023248792 -0.0604324341
-0.1528999656 0.0139283240 0.0082902908
-0.0005655289 -0.0005662441 -0.0795646906
-0.0017893314 0.0016238689 -0.0741897821
0.0026648045 -0.0004703999 -0.0770889521
-0.0920967013 0.0305247605 0.0134213567
-0.0882278308 0.0266650021 0.0029675215
-0.0904138163 0.0280887187 0.0032199025
-0.0912187621 0.0299672037 -0.0002213120
-0.0018534660 -0.0013189912 -0.1100606918
0.0000693798 -0.0011398792 -0.1050970629
-0.1537124515 -0.1768680215 0.1782034636
-0.0031285286 0.0017042458 -0.0601123571
0.0017101765 -0.0039336383 -0.0239354372
-0.0051031113 -0.0006668866 -0.0002647638
-0.0036518574 0.0018650889 -0.0149914026
-0.0031625032 0.0028597414 -0.0745879412
-0.0014460087 -0.0030684769 -0.0051083565
-0.0010977983 -0.0033353269 -0.0946780443
-0.0765529722 0.0693808198 -0.0252778530
-0.0961774737 0.0747513771 -0.0306392908
-0.0765270144 0.0603314452 0.0345788002
-0.0022717714 -0.0012240112 -0.0196923018
-0.0010690689 -0.0016860366 -0.0259523392
-0.0015400648 0.0023009181 -0.0605808496
0.0041720867 0.0005010962 -0.0003851652
0.0000494719 -0.0034241676 -0.0107666254
0.0003180504 -0.0042576194 -0.0156197548
0.0006279945 -0.0025019646 -0.0343267918
0.0009855032 0.0033093095 -0.0005515814
0.0022537708 -0.0006532073 -0.0254832506
0.0000544786 0.0022747517 -0.0205646753
-0.0035591125 0.0038828850 -0.0588798523
-0.0740674138 0.0135699715 0.0391809940
-0.0006390810 0.0006516576 -0.0256204605
-0.0029190779 -0.0033665299 -0.0547342300
-0.0012774467 -0.0035756230 -0.0000840425
-0.0014672279 0.0025913715 -0.0487067699
-0.0017180443 -0.0030369759 -0.0011688471
0.0045702457 -0.0027293563 -0.0005635023
0.0023845434 -0.0052369237 -0.0001268387
-0.0032917261 0.0039665103 -0.0263555050
0.0045702457 -0.0027293563 -0.0344893932
-0.0049877167 -0.0012978315 -0.0556521416
-0.0053182840 -0.0013409257 -0.0566070080
0.0041903257 0.0035082102 -0.0057067871
0.0033046007 0.0006854534 -0.0005586147
0.0040222406 -0.0038688779 -0.0102025270
-0.0043649673 0.0037328601 -0.0301443338
-0.0007270575 -0.0002214313 -0.0199258327
-0.0028822422 0.0004018545 -0.0008096695
0.0006804466 -0.0034904480 -0.0348428488
-0.0025521517 -0.0004702806 -0.0503556728
-0.0749573261 -0.0568733774 0.0398819447
0.0000821352 -0.0019823313 -0.0194760561
-0.0744473934 -0.0685819015 -0.0076749325
-0.0015618801 0.0012792945 -0.0058445930
-0.0027930737 -0.0040869713 -0.0085837841
0.0027722120 0.0036358237 -0.0000152588
-0.0007500648 -0.0030707717 -0.0289409161
-0.0044533014 -0.0018307567 -0.0886104107
0.0022186041 -0.0019141436 -0.0776844025
-0.0968828052 -0.0962398499 0.0857037455
0.0031113625 -0.0027722716 -0.0005983114
0.0012055635 0.0036522746 -0.0897300243
-0.1563926935 0.0454130396 -0.0220291615
0.0009595156 -0.0016327500 -0.0885781050
0.0005335808 -0.0000490546 -0.0826282501
-0.1556636691 0.0292503983 -0.0061597824
0.0041284561 0.0007532239 -0.0053967237
-0.1557802260 0.0266847312 -0.0039758682
-0.0031300783 -0.0004701614 -0.1117330790
0.0013225079 0.0008041263 -0.1143479273
0.0006413460 0.0001580715 -0.0628546476
-0.1026122496 0.0553163141 0.0504181385
-0.1548554599 0.0197570771 0.0093003511
-0.1019510999 0.0499761105 0.0417743623
-0.0510684736 0.0483095199 0.0358859338
-0.0009319782 0.0010924935 -0.0734976530
-0.0992941931 0.0312808007 0.0042035580
-0.0966176987 0.0287975967 0.0129710576
-0.0972365588 0.0276535153 0.0105253458
0.0005164146 0.0022478104 -0.0001649857
0.0049750805 -0.0035218596 -0.1239409372
0.0003064871 -0.0054103136 -0.0979485512
-0.0010637045 0.0022381842 -0.1179451868
-0.1022756174 0.1609385610 0.1512397975
0.0014837980 -0.0007638931 -0.0693571568
0.0032901764 0.0002290308 -0.0654096603
0.0022999048 0.0000547469 -0.0797820091
0.0017907619 -0.0038883686 -0.0247584581
0.0022468567 -0.0016703308 -0.0357474089
0.0030035973 -0.0041182637 -0.0002739429
0.0025987625 -0.0054060221 -0.0922487974
-0.0019012690 0.0039423108 -0.0001989603
-0.1029355526 0.1020223573 -0.0761449039
-0.0050383806 0.0010662973 -0.0092426538
0.0043374300 0.0023251474 -0.0746594667
-0.0818752199 0.0694175735 0.0043555498
-0.0023901463 0.0043130815 -0.0089960098
-0.0784731805 0.0659148693 0.0183969736
-0.0033993721 -0.0000390708 -0.0001022816
-0.0034365654 -0.0017081201 -0.0000957251
-0.0034335852 -0.0032378435 -0.0049715042
-0.0015970469 -0.0027889907 -0.0406730175
0.0051556826 -0.0008608103 -0.0607290268
0.0045176744 0.0003534555 -0.0189857483
0.0035665035 0.0023954213 -0.0940836668
-0.0778734982 0.0589946657 0.0388349295
0.0020916462 0.0055132508 -0.0089519024
-0.0038516521 -0.0005433559 -0.0003869534
-0.0038516521 -0.0005433559 -0.0555428267
-0.0038516521 -0.0005433559 -0.0855984688
-0.0033032894 0.0005934238 -0.0003657341
0.0015561581 0.0023480058 -0.0456820726
0.0026166439 0.0034667850 -0.0356122255
-0.0014187098 -0.0028734803 -0.0140521526
0.0028052330 0.0003248453 -0.0305639505
-0.0037977695 0.0027267337 -0.0052171946
-0.0013685226 0.0004663467 -0.0007665157
0.0016013384 0.0043252110 -0.0000864267
-0.0002783537 -0.0067948103 -0.0046970844
-0.0013905764 0.0015569925 -0.0103433132
-0.0031763315 -0.0003520250 -0.0129059553
-0.0011420250 0.0014340281 -0.0355229378
0.0019776821 -0.0017339587 -0.0108708143
0.0019782782 0.0007442832 -0.0380742550
-0.0016916990 -0.0022151470 -0.0000185966
-0.0010957718 -0.0047690272 -0.0005259514
-0.0010772943 0.0014436245 -0.0042545795
0.0013370514 0.0021050572 -0.0856060982
-0.0008939505 -0.0008817315 -0.0095660686
-0.0019310713 0.0034042597 -0.0001357794
-0.0037537813 0.0012047291 -0.0505862236
-0.0037537813 0.0012047291 -0.0611691475
-0.0031616688 0.0016096830 -0.0902709961
-0.0807570964 -0.0675571412 0.0174123049
-0.0780098587 -0.0674090832 0.0134348869
-0.0007677078 0.0017008185 -0.0209451914
-0.0004891157 0.0009104013 -0.0401955843
-0.0004105568 -0.0045130253 -0.0087465048
0.0010175705 -0.0024984479 -0.0704077482
0.0000146627 -0.0026169419 -0.0711386204
0.0018668175 -0.0036594868 -0.0151221752
0.0022121668 -0.0037450790 -0.0706027746
0.0026317835 -0.0004422665 -0.0882388353
0.0011450052 -0.0006985068 -0.0782246590
-0.0010926723 -0.0011367202 -0.0902073383
-0.0014325380 0.0031244755 -0.0888838768
-0.0022149086 -0.0022851825 -0.0199521780
-0.0026267767 -0.0039057732 -0.0209591389
0.0014140606 0.0004205108 -0.0105465651
-0.1088460907 0.0550577044 0.0443640053
-0.1046705395 0.0473419279 0.0308457762
-0.1068889722 0.0452092141 0.0250913501
-0.0002906322 0.0013518929 -0.0698851347
0.0004514456 0.0000094175 -0.0700533390
-0.0015048981 0.0006960630 -0.0692290068
-0.1046591327 0.0417590290 0.0139130950
-0.0997015014 0.0275051594 0.0214954913
-0.1032122821 0.0377994627 0.0081460327
-0.0999158695 0.0231966823 0.0157298744
0.0063369274 0.0018472672 -0.0094963312
-0.0006039143 -0.0003566146 -0.2311507463
0.0005472898 0.0010329485 -0.0698705912
0.1208829284 0.0207009315 0.1957756579
-0.0010112524 -0.0011196434 -0.0554038286
0.0020298958 -0.0037298501 -0.0001801252
0.0028750896 0.0025782883 -0.0050444603
0.0015221834 0.0017718375 -0.0283343792
-0.1068588570 0.1010516807 -0.0405330658
0.0034794807 0.0018011630 -0.0464314222
-0.1099969000 0.0977995992 -0.0392805338
0.0034794807 0.0018011630 -0.0804494619
0.0031261444 0.0035713017 -0.0908610821
-0.0000215769 0.0026758611 -0.0800675154
-0.0029702187 -0.0004330575 -0.0101417303
-0.0006847382 0.0003627539 -0.0947446823
-0.0008471012 0.0022449493 -0.0102735758
-0.0009357929 0.0011248589 -0.0906180143
-0.0841393173 0.0457434542 0.0451731682
0.0001001358 0.0025209188 -0.0029748678
-0.0011131763 -0.0021597147 -0.0453178883
-0.0845297277 0.0371034667 0.0491513014
0.0010722876 -0.0031388998 -0.0001406670
0.0004848242 -0.0031287670 -0.0001478195
0.0019016266 0.0024144650 -0.0402047634
0.0005233288 -0.0031057000 -0.0555702448
-0.0011922121 0.0015550256 -0.0404189825
-0.0007833242 -0.0035430193 -0.0398912430
0.0022783279 -0.0044869781 -0.0005733967
0.0006991625 -0.0021728873 -0.0310788155
0.0019818544 -0.0025469661 -0.0404531956
0.0005505085 -0.0020052791 -0.0430321693
-0.0010857582 0.0062036514 -0.0101685524
0.0014696121 0.0032010078 -0.0402570963
0.0004258156 0.0019682050 -0.0402008295
-0.0847975016 0.0028785090 0.0637360811
0.0001580715 -0.0031667948 -0.0403890610
-0.0028836727 0.0045439005 -0.0079580545
0.0016291142 -0.0017383099 -0.0403178930
-0.0017865896 -0.0001524091 -0.0405400991
-0.0038442612 -0.0012766719 -0.0403507948
-0.0035588741 0.0002994537 -0.0402473211
0.0011374950 -0.0034261942 -0.0431782007
0.0019416809 0.0012534857 -0.0002065897
0.0023863316 0.0027947426 -0.0401835442
0.0015960932 -0.0004597306 -0.0009847879
0.0015755892 0.0008750558 -0.0311651230
0.0035440922 0.0011750460 -0.0081388950
-0.0010778904 -0.0002968907 -0.0905234814
-0.0822941512 -0.0523009039 0.0430721045
-0.0006619692 0.0019787550 -0.0938211679
-0.0001022816 -0.0037192106 -0.0157890320
-0.0003236532 0.0042269826 -0.0394452810
-0.0012881756 -0.0011861324 -0.0128591061
-0.0034370422 0.0021535158 -0.0097578764
-0.0034370422 0.0021535158 -0.0139380693
0.0022590160 0.0013185740 -0.0378675461
0.0013159513 -0.0000753999 -0.0784184933
0.0027215481 -0.0000002980 -0.0837470293
0.0008734465 0.0011925101 -0.0154858828
-0.0015487671 0.0024018884 -0.0799438953
0.0002428293 -0.0028505921 -0.1474332809
-0.1065802202 -0.1000467166 0.0644869208
-0.0002379417 0.0061765909 -0.0033861399
-0.0008416176 0.0024719834 -0.0055717230
0.0004332066 -0.0011783242 -0.1050974131
-0.1118051037 0.0542801023 0.0370927453
-0.1063418463 0.0215970129 0.0246631205
-0.0012364388 -0.0008729696 -0.0802230835
-0.0605910905 0.0451935828 0.0251940340
-0.1052913070 0.0244372189 0.0222390294
-0.1054091528 0.0144011378 0.0207254887
-0.0001732111 -0.0010564923 -0.0732328892
-0.1029272228 0.0225521773 0.0147436559
-0.0009969473 0.0019598603 -0.1236838102
-0.1672187150 -0.0424342602 0.1195653677
0.0026770830 -0.0006818771 -0.2227680683
-0.0028450489 -0.0018919110 -0.1721116304
-0.1104535833 0.1691424400 0.1340895891
-0.1116171926 0.1633394957 0.1402645111
-0.1126915365 0.1661376655 0.1355543435
-0.0046374798 0.0003606677 -0.0902092457
-0.0016506910 0.0028473139 -0.0153325796
0.0033317804 -0.0028972626 -0.0002634525
-0.0010311604 -0.0013743341 -0.0807763338
0.0029919147 0.0038056374 -0.0045101643
-0.0011098385 -0.0046387315 -0.0311340094
-0.1136958674 0.0938853696 -0.0382510126
0.0021536350 -0.0023816824 -0.0001167059
0.0017442703 -0.0028844476 -0.0105848312
0.0012814999 0.0019656420 -0.0604040623
0.0008221865 0.0005325675 -0.0705399513
0.0027418137 -0.0023410916 -0.0003952980
-0.0016429424 0.0028327703 -0.0151320696
0.0019478798 0.0017797351 -0.0433987379
0.0028917789 -0.0000984073 -0.0604783297
0.0004218817 0.0027191043 -0.0401870012
-0.0004312992 0.0028547645 -0.0943224430
-0.0040134192 -0.0015987754 -0.0042253733
0.0026910305 -0.0000964999 -0.0046837330
-0.0047644377 0.0038840175 -0.0080345869
-0.0039325953 -0.0016225576 -0.0082808733
0.0038686991 0.0017696023 -0.0897661448
-0.0030554533 -0.0030011535 -0.0101213465
-0.0037953854 -0.0014202595 -0.0031104088
-0.0012803078 -0.0018472075 -0.0855783224
0.0037232637 -0.0004500747 -0.0004248619
-0.0866934955 -0.0181959867 0.0568318367
-0.0869316310 -0.0237526260 0.0544358492
0.0014187098 -0.0012552142 -0.0051776171
0.0008630753 -0.0027645826 -0.0105800629
-0.0035589933 0.0000764132 -0.0059777498
-0.0036835670 -0.0001471639 -0.0077217817
-0.0027085543 0.0015472174 -0.0946546793
0.0020686388 -0.0010496378 -0.0004260540
-0.0012511015 0.0019794703 -0.0150816441
-0.0012854338 0.0019404888 -0.0556161404
0.0007380247 -0.0022224188 -0.0655963421
-0.0035759211 -0.0009690523 -0.0702247620
-0.0022729635 0.0016150475 -0.0057460070
0.0027140379 0.0001202822 -0.0105479956
0.0027140379 0.0001202822 -0.0802537203
-0.0014094114 -0.0051597357 -0.0045192242
0.0014741421 0.0056972504 -0.0033355951
-0.0050643682 -0.0028229356 -0.0032778978
-0.1123922691 -0.1045926735 0.0469914675
-0.1133175269 -0.1053480431 0.0400036722
0.0023332834 -0.0015022159 -0.1091928482
-0.0018315315 -0.0041802526 -0.1482769251
-0.1116129532 0.0255418569 0.0780521184
-0.1130435467 0.0256128684 0.0761682540
0.0012664795 -0.0015954375 -0.0538041592
0.0021601915 -0.0026763082 -0.0145113468
-0.1121647805 0.0053380430 0.0190224946
-0.0011130571 -0.0002534389 -0.0793865919
-0.1150575280 0.0504670292 0.0220392346
0.0008594990 -0.0031374097 -0.0693987608
-0.1150575280 0.0504670292 0.0220392346
-0.1127028316 0.0471001565 0.0164482594
0.0004143715 -0.0016456842 -0.0643959045
-0.1088827625 0.0135540664 0.0186336935
0.0010716915 -0.0021721125 -0.0737080574
-0.0011671782 0.0025359988 -0.1082774401
0.0014004707 0.0037696958 -0.1197757721
-0.0984888375 -0.1873928607 -0.0009495020
-0.0032722950 -0.0007884800 -0.0005699396
-0.0024473667 0.0026232302 -0.1076562405
0.0034606457 -0.0008896589 -0.0704194307
0.0012263060 -0.0002964437 -0.0155330896
-0.0003447533 -0.0027251542 -0.0503278971
-0.0049445629 -0.0000595748 -0.0089033842
0.0013086796 -0.0063834190 -0.0252958536
0.0013086796 -0.0063834190 -0.0301012993
0.0014480352 0.0012649000 -0.0354406834
0.0037964582 0.0011167228 -0.0700633526
0.0003095865 0.0039452016 -0.0894098282
0.0013191700 -0.0014346242 -0.0232993364
0.0007590055 -0.0024299622 -0.0137826204
0.0018301010 -0.0003911555 -0.0363430977
0.0025500059 -0.0015232861 -0.0604202747
-0.1175240874 0.0871950462 -0.0666165650
-0.1180086434 0.0825961232 -0.0636172593
0.0016975403 -0.0005381107 -0.0048837662
0.0026704073 0.0017688274 -0.0107733011
0.0027190447 0.0015676022 -0.0000190735
-0.0016908646 -0.0021511316 -0.0248078108
-0.0030484200 0.0007094741 -0.0714396238
-0.0027463436 0.0041339993 -0.0199480057
0.0036156178 -0.0034115314 -0.0394252539
0.0036156178 -0.0034115314 -0.0396521091
0.0036156178 -0.0034115314 -0.0551664829
0.0036156178 -0.0034115314 -0.0936211348
0.0010296106 0.0003725886 -0.0901533365
-0.0025883913 0.0043838620 -0.0132424831
-0.0010164976 -0.0024115443 -0.0255079269
0.0004169941 0.0010148287 -0.0898735523
-0.0009087324 -0.0015694499 -0.0900428295
-0.0031565428 -0.0018507242 -0.0103489161
0.0039654970 0.0004774928 -0.0095072985
0.0039654970 0.0004774928 -0.0104086399
0.0010082722 -0.0029808283 -0.0901508331
-0.0004174709 0.0017313361 -0.0104171038
-0.0032168627 0.0016266704 -0.0132551193
-0.0020565987 0.0021616220 -0.0907893181
-0.0000336170 -0.0003688335 -0.0902185440
-0.0020977259 -0.0035190582 -0.0130467406
0.0003480911 0.0038509369 -0.0906918049
-0.0007283688 0.0020840764 -0.0947842598
0.0014659166 -0.0026004314 -0.0199625492
-0.0004545450 -0.0017340183 -0.0230185986
0.0008373260 -0.0019081235 -0.0398557186
-0.0018888712 -0.0004875064 -0.0646169186
-0.0011866093 -0.0034431815 -0.0003969669
0.0036205053 0.0012528896 -0.0001602173
0.0036205053 0.0012528896 -0.0688472986
-0.0021535158 0.0029285550 -0.0095362663
-0.0011293888 -0.0036581159 -0.0754486322
-0.0015926361 -0.0018991828 -0.0796880722
0.0001548529 -0.0001733303 -0.0857110023
-0.0024619102 -0.0023243427 -0.0152510405
-0.0024619102 -0.0023243427 -0.0374168158
-0.0024430752 0.0024384260 -0.0703717470
-0.0054578781 0.0004658103 -0.0735316277
0.0007143021 -0.0035695434 -0.0892883539
0.0012308359 0.0005167127 -0.0158885717
-0.0008790493 0.0007888675 -0.0778013468
-0.0008609295 -0.0051501989 -0.0185604095
0.0024061203 -0.0024210811 -0.0359337330
0.0030157566 -0.0011315942 -0.0099292994
-0.0009725094 -0.0005102158 -0.1472171545
-0.0000317097 0.0008213520 -0.0506694317
-0.0009664297 -0.0002519488 -0.0991466045
-0.0022596121 -0.0035424232 -0.0611662865
-0.1168729663 0.0008083805 0.0161828995
0.0027259588 -0.0007008314 -0.0793954134
-0.0012930632 0.0026275516 -0.1064668894
-0.0035376549 0.0006904006 -0.1046406031
-0.0040760040 0.0026697516 -0.1156556606
-0.0020390749 0.0018779039 -0.0905439854
0.0023375750 -0.0003622770 -0.1054322720
0.0047969818 -0.0000006258 -0.1006716490
-0.0005373955 -0.0040853322 -0.0209565163
-0.0041295290 -0.0007097423 -0.0452064276
0.0023608208 0.0051864386 -0.0804208517
0.0024293661 -0.0003430843 -0.0202534199
-0.0001467466 -0.0032981038 -0.0000537634
0.0010362864 -0.0020088255 -0.0386229753
-0.0007966757 -0.0029608607 -0.0692770481
-0.0027660131 0.0017699599 -0.0748986006
-0.0001634359 -0.0006410480 -0.0064151287
-0.0013911724 -0.0008832812 -0.0303077698
0.0002441406 0.0016297698 -0.0808792114
-0.1206541583 0.0786003917 -0.0596528649
-0.0042010546 0.0019509792 -0.0194495916
0.0020964146 0.0031629205 -0.0005862713
-0.0007194281 0.0012609959 -0.0108076334
0.0013213158 0.0012692213 -0.0558973551
0.0019044876 0.0008839965 -0.0599210262
-0.0002795458 0.0023267269 -0.0712205172
0.0024358034 0.0006594062 -0.0003153086
-0.0024918318 -0.0011098981 -0.0062808990
-0.0016305447 0.0012842417 -0.0308715105
-0.0008544922 -0.0018035173 -0.0557508469
-0.0021431446 -0.0007579923 -0.0280379057
0.0023405552 0.0013886094 -0.0554609299
0.0004678965 -0.0031923056 -0.0255737305
0.0014883280 -0.0012382269 -0.0404472351
0.0035755634 -0.0021403432 -0.0398683548
-0.0012071133 0.0013933778 -0.0398577452
-0.0013245344 -0.0006353259 -0.0254861116
-0.0000923872 0.0010941029 -0.0402226448
-0.0024747849 -0.0023671389 -0.0304539204
0.0000760555 -0.0015311241 -0.0404361486
-0.0007134676 -0.0000262260 -0.0058847666
0.0032905340 0.0015287399 -0.0447249413
0.0021167994 -0.0038735867 -0.0105344057
-0.0046451092 0.0010542274 -0.0564326048
-0.0046451092 0.0010542274 -0.0699430704
0.0011333227 0.0043485165 -0.0038460493
-0.0019485950 0.0013732910 -0.0161705017
0.0007452965 0.0033953190 -0.0748312473
-0.0033088923 0.0009939671 -0.0151726007
-0.0026465654 -0.0023010969 -0.0686209202
-0.0002194643 0.0038508177 -0.0729836226
0.0037237406 0.0010870695 -0.0800865889
0.0012763739 -0.0003074408 -0.0829824209
-0.0011206865 -0.0018798709 -0.0196337700
-0.1207012236 0.0019944757 0.0239441693
-0.0019346476 -0.0023238063 -0.0795410872
-0.1194063276 0.0014481246 0.0161755383
0.0014557838 0.0023730993 -0.0680338144
-0.1196245700 0.0093602911 0.0233026147
0.0016070604 -0.0012093186 -0.0742033720
-0.0015076399 -0.0002194047 -0.0589631796
-0.0031143427 -0.0004295111 -0.1050646305
0.0017536879 -0.0007175207 -0.1216373369
0.0017390251 -0.0020005703 -0.0013344288
-0.0015540123 0.0026516318 -0.0951831341
0.0028961897 -0.0007664263 -0.0410301685
0.0004609823 -0.0031849146 -0.0657740831
-0.0026102066 -0.0015875697 -0.0508084297
0.0005954504 0.0018271506 -0.0700203180
0.0019992590 0.0005972385 -0.0694984198
-0.0022680759 0.0008745193 -0.0806990862
-0.0000315905 0.0019197166 -0.0801069736
-0.0002819300 0.0011263490 -0.0203826427
0.0038450956 0.0008398592 -0.0867224932
0.0018428564 0.0024576187 -0.0456309319
-0.1262921542 0.0787776411 -0.0601573586
-0.0011397600 -0.0006955862 -0.0106458664
-0.0001645088 -0.0001545548 -0.0352507830
-0.0002518892 -0.0003064275 -0.0502387285
-0.0014549494 0.0028607845 -0.0602788925
-0.0030891895 -0.0002156496 -0.0739290714
0.0004385710 0.0003871918 -0.0735985041
0.0018466711 -0.0009056330 -0.0735977888
-0.0011669397 0.0006555915 -0.0733698606
-0.0002617836 -0.0005656481 -0.0737466812
0.0012551546 0.0030001402 -0.0734997988
0.0010188818 0.0013269782 -0.0737395287
-0.0035855770 0.0000417829 -0.0004981756
0.0000475645 0.0007543564 -0.0739668608
0.0001386404 0.0004259348 -0.0737345219
0.0010473728 -0.0019148588 -0.0736035109
-0.0006445646 0.0019509792 -0.0055869818
0.0015331507 0.0027415752 -0.0828480721
-0.0011587143 -0.0008389354 -0.0875087976
-0.0002839565 -0.0009001493 -0.0433372259
0.0005613565 -0.0033616424 -0.0682545900
0.0010111332 -0.0006411672 -0.0194686651
-0.0025801659 0.0003920197 -0.0705342293
-0.1243186370 -0.0211034939 0.0471943319
-0.1253987104 -0.0199141055 0.0468498170
-0.1060615480 -0.0884800032 -0.0579923391
0.0024708509 -0.0007969141 -0.1004056931
-0.1255178303 0.0010351092 0.0172590613
-0.0022974014 -0.0002628565 -0.0254681110
-0.0026350021 -0.0017399788 -0.0801459551
-0.0005378723 -0.0050244331 -0.0296884775
-0.0029077530 0.0040311813 -0.0711578131
-0.0042468309 0.0026769042 -0.0740349293
0.0014069080 -0.0004872084 -0.0563386679
0.0006765127 0.0015770197 -0.0643167496
-0.0041402578 0.0031949878 -0.1215914488
-0.0024813414 0.0027266145 -0.0906753540
0.0968687683 0.0485507101 0.1405691803
0.0020290613 0.0027254224 -0.1054394171
-0.0009515285 -0.0014746189 -0.0604126453
-0.0027523041 0.0000200868 -0.0652612448
0.0016623735 0.0008204877 -0.0604493618
0.0015304089 0.0017366111 -0.0901919603
0.0017889738 0.0019537210 -0.0452119112
-0.0002572536 -0.0009202957 -0.0792891979
0.0013831854 -0.0030903518 -0.0000088215
-0.0010099411 0.0000686347 -0.0804010630
-0.0042493343 0.0004116893 -0.0391564369
-0.0042493343 0.0004116893 -0.0398360491
0.0018969774 -0.0020068288 -0.0642368793
0.0007708073 -0.0009395480 -0.0057452917
-0.0012434721 -0.0023732185 -0.0256118774
0.0014129877 -0.0014850497 -0.0298869610
-0.0003799200 -0.0008388162 -0.0606641769
-0.0005325079 0.0001044869 -0.0851343870
-0.0014173985 -0.0032427311 -0.0244768858
-0.1306593418 0.0626800284 -0.0306977034
0.0037848949 -0.0023254156 -0.0689520836
-0.0027050972 -0.0013081431 -0.0012514591
0.0026019812 0.0009878278 -0.0106264353
0.0019879341 -0.0041670203 -0.0154514313
-0.0026997328 0.0037453175 -0.0653228760
-0.1094230264 0.0164941847 0.0353904963
-0.0013742447 0.0012814403 -0.0101819038
-0.0010548830 0.0017667413 -0.1830743551
0.0002393723 0.0041530132 -0.0459988117
-0.0006738901 0.0013342500 -0.0649214983
0.0041798353 -0.0009229183 -0.0654963255
0.0017412901 0.0033046007 -0.0002754927
0.0026199818 0.0028190017 -0.0102587938
-0.0017642975 0.0034202933 -0.0696419477
0.0035049915 0.0046688318 -0.0742826462
-0.0026613474 -0.0031206012 -0.0809133053
-0.0011819601 -0.0052083731 -0.0233056545
-0.0018031597 -0.0007800460 -0.0795339346
0.0012874603 -0.0043624043 -0.0825707912
-0.0041726828 -0.0026184916 -0.0227288008
-0.1287152618 -0.0138791651 0.0391302109
-0.1104797274 -0.0837770551 0.0154674053
0.0007394552 0.0014400482 -0.0908401012
0.0018599033 0.0028246641 -0.0409761667
0.0018599033 0.0028246641 -0.0994925499
0.0013877153 0.0018183589 -0.1006578207
-0.0027732849 -0.0009467602 -0.0446225405
-0.1279526204 -0.0017637610 0.0137782991
-0.1292927861 -0.0018605143 0.0148039758
-0.0047485828 0.0020102859 -0.0887939930
-0.1284018457 0.0037765056 0.0045408010
0.0011136532 -0.0003607273 -0.1340941191
0.0006791353 0.0011190176 -0.0686814785
0.0008735657 0.0008533001 -0.0733966827
0.0016531944 -0.0026560426 -0.0604219437
0.0025984049 -0.0014081597 -0.0631871223
0.0058224201 0.0009104013 -0.1146370173
0.0019696951 -0.0035772920 -0.1209380627
-0.0001590252 -0.0005244017 -0.1050106287
-0.1107805669 -0.1772943437 0.0146796703
0.0008639097 0.0015042424 -0.0865411758
-0.0013369322 -0.0008524060 -0.0931485891
-0.0025432110 0.0035227537 -0.1204062700
-0.0011100769 0.0030459762 -0.0558211803
-0.0002319813 -0.0003985167 -0.0736614466
0.0020809174 -0.0027193427 -0.0802798271
-0.0025459528 0.0013338923 -0.0998510122
-0.0001325607 0.0007093251 -0.0211910009
0.0025810003 -0.0013719499 -0.0598846674
0.0012333393 -0.0032745600 -0.0513541698
0.0000963211 0.0034954548 -0.0805021524
-0.0004601479 -0.0000960827 -0.0599824190
0.0001696348 0.0014698505 -0.0848299265
0.0022351742 -0.0009034276 -0.0471975803
-0.1358003914 0.0615224354 -0.0559666753
-0.0004544258 0.0036756992 -0.0006035566
0.0027894974 -0.0024363995 -0.0689190626
0.0009503365 -0.0036249161 -0.0800323486
-0.1363005191 0.0425858684 -0.0303178132
0.0010925531 -0.0030533075 -0.0235028267
0.0010925531 -0.0030533075 -0.0504411459
-0.1352053881 0.0531947538 -0.0497513115
-0.0007681847 -0.0018647909 -0.0575233698
0.0015623569 0.0006904006 -0.0654604435
0.0010771751 0.0022403002 -0.0203104019
0.0015994310 -0.0019029379 -0.0654301643
-0.0018553734 0.0015304089 -0.0700203180
-0.0007988214 -0.0005331635 -0.0302717686
0.0008478165 -0.0050852895 -0.0835492611
-0.0002856255 0.0038561225 -0.0051869154
0.0025730133 0.0011008382 -0.0609352589
0.0006992817 -0.0000498891 -0.0825424194
-0.0003592968 -0.0007567406 -0.0810616016
-0.0034333467 0.0005862117 -0.0279099941
-0.0006096363 0.0029813647 -0.0599846840
-0.1327512711 -0.0130408481 0.0164704621
-0.1347066313 -0.0104597919 0.0144438148
-0.0019426346 0.0002489090 -0.0732384920
-0.0006096363 0.0029813647 -0.0752961636
-0.0038455725 0.0024940372 -0.0558151007
-0.1371197551 0.0054193661 -0.0142819583
-0.0021154881 0.0028751493 -0.0596814156
0.0014398098 -0.0024901628 -0.0605144501
-0.1351795346 -0.0016467348 -0.0007354915
0.0000926256 -0.0016101003 -0.0355175734
-0.1349560767 -0.0015285909 -0.0082160830
-0.1355922371 -0.0012404397 0.0039797127
-0.1334829628 0.0007735640 -0.0056691766
-0.0024861097 0.0019393563 -0.0447595119
0.0010687113 -0.0038407445 -0.0756504536
0.0021711588 0.0004245043 -0.0663223267
0.0025368929 -0.0013751984 -0.0697768927
-0.0007200241 0.0020580292 -0.0740116835
0.0004982948 -0.0004940629 -0.0489490032
0.0007731915 -0.0014396310 -0.1192573309
-0.0010073185 -0.0024793148 -0.1209458113
-0.0892061144 0.0332435966 0.0021193773
-0.0023452044 0.0026875734 -0.1003240272
0.0040163994 -0.0031586885 -0.1056369469
-0.1357208043 0.0015903711 0.0010589659
-0.0027710199 -0.0021882057 -0.1105230972
0.0009001493 0.0011780262 -0.1125563383
0.0028469563 0.0008806586 -0.0858604908
-0.0004826784 -0.0004985332 -0.2231241465
0.0014345646 -0.0005840659 -0.1203612089
-0.0003547668 -0.0038983226 -0.1054389477
-0.0008186102 -0.0016153455 -0.0555940866
0.0017272234 -0.0014068484 -0.0703105927
-0.0010631084 0.0008749664 -0.0442674160
-0.0021545887 -0.0003148913 -0.0404611826
0.0000970364 -0.0021753311 -0.0950990915
0.0002776384 0.0036521554 -0.0657352209
0.0001741648 -0.0024589896 -0.0005283356
0.0002123117 0.0022174120 -0.0110523701
-0.0018821955 -0.0040032268 -0.0204238892
0.0001001358 -0.0030693412 -0.0688756704
-0.0006200075 -0.0010214448 -0.0357323885
0.0038944483 0.0011786819 -0.0153682232
-0.0030894279 0.0006393790 -0.0577220917
-0.0005663633 0.0012224913 -0.0804078579
-0.0029689074 0.0020403266 -0.0828528404
0.0042363405 0.0027159452 -0.0478591919
0.0036249161 -0.0007537007 -0.0551598072
0.0028704405 0.0002242923 -0.0556347370
0.0018999577 0.0028337240 -0.0547080040
0.0018999577 0.0028337240 -0.0821701288
-0.0021271706 -0.0026130080 -0.0007860661
0.0008293390 0.0025234222 -0.0307396650
-0.0007561445 -0.0036072135 -0.0380238295
0.0018225908 0.0028339028 -0.0806868076
-0.1400207132 0.0450931564 -0.0527262688
-0.0012400150 0.0011641383 -0.0534714460
-0.0007072687 0.0017404556 -0.0802799463
-0.1384264976 0.0413432270 -0.0450270772
-0.1395985186 0.0394279696 -0.0484796166
-0.0032929182 0.0014032722 -0.0529597998
-0.0011078119 -0.0036635399 -0.0801863670
0.0041725636 0.0002222061 -0.0531911850
0.0041812658 0.0021277070 -0.0797673464
-0.1389535069 0.0241482258 -0.0167479813
0.0035035610 -0.0028859377 -0.0534038544
-0.0054018497 -0.0029196143 -0.0800862312
0.0015941858 0.0052043796 -0.0004880428
0.0014806986 0.0041223764 -0.0000473261
-0.0005253553 0.0038506389 -0.0306384563
0.0024665594 0.0027224422 -0.0358096361
-0.0001877546 0.0043541193 -0.0536898375
0.0015288591 0.0045818686 -0.0807251930
0.0008471012 0.0025405884 -0.0448091030
-0.0000846386 -0.0025829673 -0.0545445681
-0.1401192397 0.0135287540 -0.0107405782
-0.0000221729 -0.0024755597 -0.0815602541
0.0007615089 -0.0027322769 -0.0820028782
-0.0005843639 0.0029129982 -0.0435593128
0.0009660721 -0.0020351410 -0.0551677942
0.0020292997 0.0000526309 -0.0804991722
0.0020514727 -0.0029682517 -0.0565603971
0.0037665367 0.0027191639 -0.0505043268
-0.0007556677 0.0048590302 -0.0717958212
-0.0036051273 -0.0025418401 -0.0805393457
0.0010687113 -0.0043047667 -0.0655392408
-0.1384204030 0.0053776540 -0.0157307088
-0.1399666071 0.0075698905 -0.0159250200
-0.1388738006 0.0083214305 -0.0166181028
0.0022192001 -0.0003108978 -0.0001819134
0.0018541813 -0.0004007220 -0.0399541855
0.0003963709 0.0006177425 -0.0558434725
0.0021300316 -0.0001431704 -0.0943063498
0.0021791458 -0.0008201003 -0.0977506638
0.0020549297 -0.0023032427 -0.0442388058
-0.0017055273 -0.0049344897 -0.0609899759
0.0018366575 0.0005620718 -0.0806299448
0.0014978647 0.0012494922 -0.0782417059
-0.0023280382 -0.0007259846 -0.0703630447
0.0000827312 0.0005250573 -0.0587255955
-0.0019415617 -0.0009337068 -0.0449528694
-0.0940285027 0.0288350284 0.0018876791
-0.1207320988 -0.1649958193 0.0250496864
-0.1406556517 0.0041046590 0.0011802912
-0.0915199667 -0.0006738007 -0.0676165074
-0.0034633875 0.0017959476 -0.2176700830
0.0033354759 0.0002693534 -0.0005830526
-0.1270897239 0.1638910770 0.0269519091
0.0013396740 0.0064786375 -0.0057386160
-0.0022774935 0.0030279458 -0.0452933311
0.0001436472 0.0005888641 -0.0703220367
0.0022387505 0.0022541881 -0.0802631378
-0.1242625117 0.0856371000 0.0263538361
0.0030840635 -0.0000054836 -0.0357910395
-0.0030587912 0.0028286278 -0.0437809229
0.0006980896 -0.0032533109 -0.0979930162
0.0008298159 -0.0006423295 -0.0401983261
-0.0003836155 0.0040298104 -0.0005533695
0.0029931068 0.0002341270 -0.0300496817
-0.0010087490 -0.0027772784 -0.0849746466
-0.0004321337 -0.0001377463 -0.0716508627
-0.0005940199 0.0019787550 -0.0655347109
-0.0013089180 0.0001457334 -0.1682786942
0.0012516975 0.0019325614 -0.0737184286
0.0015375614 0.0014771223 -0.0635683537
-0.1427470148 0.0302317124 -0.0422629118
-0.0030297041 -0.0020273328 -0.0689985752
-0.1458465755 0.0228526127 -0.0340335965
-0.1433433145 0.0287302695 -0.0339853168
-0.1430728287 0.0207263753 -0.0311588049
0.0037074089 -0.0028765202 -0.0055128336
0.0024664402 -0.0032645464 -0.0162230730
-0.0027281046 -0.0005686879 -0.0361351967
-0.0012719631 -0.0015963912 -0.0444649458
0.0005091429 0.0013036728 -0.0470174551
0.0013257265 -0.0026695132 -0.0905340910
-0.0021386147 0.0039259195 -0.0005204678
-0.0021386147 0.0039259195 -0.0945352316
-0.0047640800 -0.0027663112 -0.0960965157
-0.0008145571 0.0016165972 -0.0654071569
0.0019865036 -0.0025118589 -0.1137963533
-0.0023063421 -0.0017570853 -0.0682337284
0.0006335974 -0.0001200437 -0.0735998154
-0.0014148951 -0.0004522204 -0.1189943627
0.0000665188 -0.0031930804 -0.0506538153
0.0001301765 0.0027270317 -0.0545812845
0.0005071163 -0.0027002096 -0.0390836000
-0.0003176928 -0.0023102164 -0.0503399372
-0.1448057890 -0.0014269203 0.0023215711
-0.1271873116 -0.1614711136 0.0287280083
-0.0003100634 0.0004225969 -0.2164384127
-0.0011556149 0.0007684231 -0.0834176540
0.0029129982 0.0015696585 -0.0055288076
0.0026258230 0.0003226995 -0.0856020451
0.0008178949 -0.0057225525 -0.0042934418
-0.0022155046 0.0000270307 -0.0435148478
-0.0002763271 -0.0039061606 -0.1051430702
-0.0003668070 0.0018417239 -0.0607368946
0.0016276836 0.0011695623 -0.0210272074
0.0016051531 -0.0002377629 -0.0447967052
0.0001262426 -0.0019575357 -0.0437666178
-0.0030730963 -0.0002053976 -0.0251613855
-0.0030730963 -0.0002053976 -0.0408146381
0.0004254580 -0.0014446974 -0.0212470293
-0.1277702153 0.0183343086 0.0339096785
-0.0033905506 -0.0002781153 -0.0800586939
-0.1265685558 0.0123934913 0.0315824747
-0.1271862537 -0.0263079293 0.0074579716
-0.0014683008 0.0010583401 -0.0387618542
0.0024549961 -0.0031504631 -0.0248317719
0.0041593313 -0.0033670664 -0.0420825481
0.0024549961 -0.0031504631 -0.0854427814
-0.1268758327 -0.0490545705 -0.0119585991
-0.1283492595 -0.0555367023 -0.0193567276
-0.0014982224 0.0028474927 -0.0457729101
0.0007505417 -0.0020216703 -0.0483989716
-0.0015295744 0.0028344989 -0.0926226377
-0.0013760328 -0.0048922896 -0.0253629684
-0.0031237602 -0.0002025366 -0.0655217171
-0.0035696030 -0.0038788319 -0.1058677435
-0.1285062581 -0.0882310420 0.0225548744
-0.0021561384 0.0049484968 -0.0687417984
-0.0021611452 0.0025063753 -0.0202606916
0.0012626648 -0.0011765957 -0.0299812555
-0.0002499819 -0.0011290908 -0.0548696518
-0.0049982071 -0.0012089014 -0.0204930305
0.0003384352 -0.0025495291 -0.0906598568
-0.0023666620 -0.0010067225 -0.1152763367
0.0018994808 0.0023262501 -0.0754042864
-0.1030238122 0.0159775466 -0.0277519077
0.0019965172 0.0026692152 -0.0002256632
0.0028073788 -0.0000864267 -0.0924837589
-0.0009576082 -0.0043576360 -0.0000109673
-0.0041769743 -0.0004660487 -0.1061477736
-0.0028041601 0.0021833181 -0.1230771467
0.0006566048 -0.0014743507 -0.1154025793
-0.0004076958 -0.0035341680 -0.0536876917
0.0018531084 0.0010796487 -0.0357549191
-0.0010113716 -0.0021655560 -0.1136122867
0.0016646385 -0.0011811852 -0.0988799334
-0.0018880367 0.0000950694 -0.0244970322
0.0023475885 -0.0002616048 -0.0148650408
0.0012896061 0.0000005364 -0.0658428669
0.0008708239 -0.0010496676 -0.0798242092
-0.1357132792 0.0519244485 0.0744879246
-0.0023958683 0.0035768747 -0.0945422649
-0.0028408766 -0.0021209717 -0.0502388477
0.0021028519 0.0028315783 -0.0904177427
0.0000433922 -0.0009122491 -0.0523164272
-0.0010191202 0.0017701983 -0.0354392529
-0.1555412859 0.0293415971 0.1822541803
-0.1551349163 0.0192565378 0.1847238243
-0.1328520477 0.0161157735 0.0320677757
-0.1320271492 0.0097687272 0.0297791958
-0.1336726546 0.0080613671 0.0285686255
-0.1351178139 0.0014868071 0.0232727528
-0.1320572197 -0.0112004206 0.0161218643
-0.1089015603 0.1786105037 0.0510346256
-0.1340230852 -0.0260954164 0.0055736303
-0.0048873425 -0.0000088215 -0.0340360403
-0.0017603636 0.0015603304 -0.0358527899
-0.0034034252 -0.0027053952 -0.0532470942
-0.1307973415 -0.0413816571 -0.0060923100
-0.1323689073 -0.0462179296 -0.0108191967
0.0003021955 -0.0026295781 -0.0498352051
0.0026247501 -0.0047230124 -0.0928359032
-0.1093053669 0.1348125339 0.0397412926
-0.0027333498 0.0003714561 -0.0401694775
-0.1095652878 0.1228524521 0.0349315591
-0.0009701252 -0.0029864907 -0.0652227402
-0.0003347397 -0.0032676458 -0.0801637173
-0.0063577890 0.0005756021 -0.0634653568
-0.0071895123 0.0004304647 -0.0684344769
-0.0001580715 0.0055070519 -0.0000241995
0.0020852089 -0.0004926324 -0.0738276243
0.0019973516 0.0016425252 -0.0237368345
0.0001915693 -0.0006364584 -0.0517361164
0.0008065701 -0.0013957024 -0.0301733017
0.0059105158 -0.0007098913 -0.1056108475
0.0059105158 -0.0007098913 -0.1195513010
0.0001558065 0.0013350248 -0.1044286489
0.0015614033 -0.0009623766 -0.1071695089
0.0000506639 -0.0014331937 -0.2144925594
-0.0025018454 -0.0018913746 -0.2173165083
0.0034654140 0.0014280975 -0.0007102489
0.0032317638 -0.0025631785 -0.0047888756
0.0034863949 -0.0020649135 -0.0639983416
0.0015282631 0.0024922788 -0.0597770214
0.0013002157 0.0028147697 -0.0330024958
0.0010070801 0.0013544261 -0.0605868101
-0.1398683637 0.0765228048 0.0524952412
-0.1393709928 0.0749318451 0.0544646978
0.0005596876 0.0035902560 -0.0600650311
-0.0036005974 -0.0004890859 -0.0654776096
-0.0034735203 -0.0002084970 -0.0703758001
-0.1403177977 0.0641929358 0.0675120354
0.0022739172 -0.0014526844 -0.0797070265
-0.0039016008 -0.0003786683 -0.0752346516
-0.0031579733 0.0031787753 -0.0209171772
-0.0056611300 0.0011557937 -0.0253112316
-0.0045017004 0.0002777576 -0.0936777592
-0.1611149460 0.0697896034 -0.0904982686
-0.1378836632 0.0286100321 0.0856249332
-0.0024404526 -0.0002503395 -0.0250544548
-0.1580845267 0.0254939552 0.1793552190
-0.0007736683 -0.0008139610 -0.0551270247
-0.0003560781 -0.0009543300 -0.0900653601
-0.0019023418 0.0006353855 -0.0549113750
-0.1369482577 0.0067088753 0.0892019272
-0.0007188320 -0.0028291941 -0.0327445269
-0.0013166666 0.0009219050 -0.0555206537
-0.0020329952 0.0017713308 -0.0327678919
0.0000391006 0.0021885037 -0.0550270081
0.0002135038 0.0009766221 -0.0328145027
0.0022699833 0.0013065934 -0.0552580357
0.0005019903 -0.0022460222 -0.0327482224
0.0013971329 0.0028882027 -0.0544217825
0.0019156933 0.0023811460 -0.0161715746
-0.1394487321 -0.0151416967 0.0883985758
-0.1405469477 -0.0186130926 0.0879912376
0.0024995804 0.0000527501 -0.0550504923
-0.0009918213 0.0024036765 -0.0903612375
-0.1373937726 -0.0207878239 0.0765693188
-0.1385862827 -0.0320003852 0.0846470594
0.0025655031 0.0009766817 -0.0248379707
-0.1387792379 -0.0426418670 0.0805416107
-0.0014207363 0.0018622875 -0.0935124159
0.0000891685 -0.0012868047 -0.0795203447
-0.0007313490 -0.0020348430 -0.0551463366
0.0001542568 -0.0035560131 -0.0689544678
-0.1377999336 -0.0770857632 0.0488090515
-0.0016298294 0.0003418922 -0.0628293753
-0.1133774072 0.1147894934 0.0270295292
-0.1369902343 -0.0802931860 0.0440832376
0.0049659014 -0.0011711717 -0.0013214350
0.0049659014 -0.0011711717 -0.0197064877
0.0001692772 -0.0005342960 -0.0498818159
0.0023742914 0.0031146407 -0.1032768488
-0.0033793449 0.0007545948 -0.0606461763
-0.0014779568 0.0026116967 -0.1237610579
-0.1582639217 -0.0031625330 -0.0071439743
-0.1387940198 -0.1428643614 0.0424997807
-0.0041630268 0.0001202226 -0.1053906679
0.0026440620 0.0028860569 -0.0809136629
0.0019986629 -0.0030464530 -0.1006395817
-0.0004813671 -0.0001587868 -0.2119400501
0.0015159845 -0.0017718077 -0.0755695105
-0.1446833014 0.1288579553 0.0527465343
0.0036447048 -0.0014921725 -0.1252795458
0.0035028458 0.0019343495 -0.0000495911
0.0047588348 0.0022560358 -0.0005800724
-0.0031278133 -0.0009352565 -0.0491497517
0.0014778376 0.0012394786 -0.0289987326
-0.0009394884 -0.0036047101 -0.0687303543
-0.0034667253 0.0035324693 -0.1105415821
0.0008100271 0.0047626495 -0.0448291302
0.0030474663 -0.0036553442 -0.0692557096
-0.0001682043 0.0005460978 -0.0650957823
0.0000320673 0.0025750399 -0.0300079584
0.0006700754 -0.0032289028 -0.0744905472
0.0012838840 -0.0013031960 -0.1477849483
-0.1640190780 0.0678980201 -0.0821948946
-0.1648237854 0.0198683925 0.1748148501
0.0022525787 -0.0003458858 -0.0954552889
-0.0020463467 -0.0018864274 -0.0210834742
-0.0006846189 -0.0002312064 -0.0953675508
-0.0025019646 0.0006999373 -0.0750907660
0.0014716387 -0.0032729506 -0.0212872028
-0.0027458668 -0.0027888417 -0.0400911570
-0.0001472235 -0.0008687377 -0.0687533617
0.0039796829 -0.0043092370 -0.0789977312
0.0035992861 0.0007582307 -0.0891648531
0.0011496544 0.0000643134 -0.0456045866
-0.0009665489 -0.0005971789 -0.0473543406
0.0011520386 0.0018227696 -0.0156717300
-0.1651083231 0.0004232526 -0.0178456903
0.0010099411 0.0010655522 -0.1085205078
-0.0032457113 0.0014175773 -0.1197092533
0.0010657310 -0.0016812682 -0.1054104567
-0.0030704737 0.0027264953 -0.0997653008
0.0024008751 0.0008509755 -0.1531889439
0.0032205582 0.0009285510 -0.0000932217
0.0024126917 0.0424461216 0.1289595366
-0.0009381771 0.0018740296 -0.0060029030
-0.0014721155 0.0043060184 -0.0390293598
-0.0007354021 0.0046999753 -0.0908650160
0.0006192923 0.0006479919 -0.1088137627
-0.0008735657 -0.0001350939 -0.1249076128
0.0000325441 0.0050252080 -0.0959330797
0.0017323494 -0.0014733672 -0.0764813423
-0.0019538403 -0.0031402111 -0.0453727245
-0.0040613413 -0.0016854405 -0.0296654701
0.0009243488 0.0023388863 -0.0598838329
-0.0016597509 0.0029057860 -0.0701957941
-0.0049933195 -0.0000245571 -0.0107225180
0.0049910545 -0.0001828074 -0.0188728571
-0.0002969503 0.0022597909 -0.1443899870
0.0005445480 0.0002841353 -0.0793464184
-0.0019446611 -0.0011539459 -0.0799309015
0.0033863783 -0.0004588366 -0.0203784704
0.0026016235 0.0020521879 -0.0791966915
-0.0025830269 0.0017948747 -0.0791704655
-0.1712770313 0.0075649209 0.1685790122
0.0017606020 0.0023844242 -0.0778467655
0.0016262531 0.0001665354 -0.0774497986
0.0045647621 -0.0033216476 -0.0782386065
0.0010432005 0.0037411451 -0.0789273977
-0.1730728149 0.0476956032 -0.0654791892
0.0001469851 0.0007700920 -0.0790003538
0.0010844469 -0.0035643578 -0.0160316229
-0.0018980503 -0.0025779605 -0.0790365934
-0.0006579161 -0.0009543300 -0.0795030594
-0.0014910698 -0.0031723976 -0.0202702284
-0.0002876520 -0.0020825863 -0.0656514168
-0.0004732609 -0.0019378662 -0.0798811913
-0.0042402744 -0.0023869276 -0.0523123741
-0.0042402744 -0.0023869276 -0.0642819405
-0.0027412176 0.0038377643 -0.0825482607
-0.1242405400 0.1158663034 0.0154152587
-0.0004382133 0.0019548535 -0.0287634134
-0.1718841046 0.0015484691 -0.0337190330
0.0025006533 0.0010692477 -0.0055773258
0.0016213655 0.0019044876 -0.0871160030
-0.1690713763 0.0042934045 -0.0219434202
0.0013533831 -0.0017936230 -0.1086641625
-0.1497347504 -0.1308820695 0.0529907942
-0.0001436472 -0.0003399253 -0.1065161228
-0.0010942221 -0.0022405386 -0.2111773491
0.0024085045 -0.0010192692 -0.0002800226
-0.1543556601 0.1117829978 0.0655276775
-0.1533411294 0.1122509316 0.0650279522
-0.0017249584 0.0002226532 -0.0855326653
0.0021702051 -0.0014210045 -0.1282361746
0.0011024475 -0.0016215444 -0.1104542017
0.0049915314 0.0023477077 -0.0060065985
0.0049915314 0.0023477077 -0.1250566244
-0.0040717125 -0.0019895434 -0.0339794159
0.0027519464 0.0027271509 -0.0439227819
0.0013468266 0.0016067326 -0.0404922962
-0.0022437572 0.0017296672 -0.0362040997
-0.0017957687 -0.0037774444 -0.0471413136
0.0018454790 0.0037249923 -0.0647941828
0.0031147003 0.0025287271 -0.0442128181
0.0007327795 0.0022573471 -0.1307452917
-0.0035457611 0.0017064214 -0.0386272669
-0.0035457611 0.0017064214 -0.0601375103
-0.0038489103 0.0009846687 -0.0054150820
-0.0032340288 0.0015465617 -0.0153746596
-0.0023677349 0.0019707084 -0.0697680712
-0.0004173517 0.0018402934 -0.0687839985
-0.0036026239 -0.0014169216 -0.0007702112
-0.0036026239 -0.0014169216 -0.0305759907
-0.0006662607 -0.0008133650 -0.0698554516
-0.0009995699 -0.0014986992 -0.0691680908
-0.0010637045 0.0019838810 -0.0686075687
-0.1295363605 0.1933575273 0.0298272893
0.0007858276 0.0016673207 -0.0698080063
0.0009289980 0.0004152060 -0.0689187050
0.0017673969 -0.0005213618 -0.0699615479
0.0006794930 0.0027455091 -0.0698834658
-0.0000427961 0.0027372241 -0.0604035854
0.0011457205 0.0022720098 -0.0627752542
-0.1751013845 0.0180178918 -0.0525518060
0.0017136335 0.0032955408 -0.0480061769
0.0027819872 -0.0035022497 -0.0361624956
-0.0010788441 0.0020118356 -0.0429748297
-0.1279396415 0.1250572056 0.0186635926
-0.0002578497 -0.0018784404 -0.0349847078
-0.1292065978 0.1192971021 0.0155257061
0.0037850142 0.0009011626 -0.0255945921
-0.0000208616 -0.0030962229 -0.0837627649
-0.0034892559 -0.0011149049 -0.1102919579
0.0007724762 -0.0030978918 -0.1200705767
0.0028421879 -0.0026723742 -0.0159636736
0.0036506653 0.0010718107 -0.1246672869
-0.1530416161 -0.1184771433 0.0611822605
0.0016001463 0.0012006760 -0.1041857004
0.0000805855 0.0011923909 -0.0710334778
-0.0002216101 -0.0029229224 -0.0136442184
0.0026158094 -0.0002330840 -0.0928753614
-0.0005006790 0.0042033195 -0.0007393360
-0.0034728050 0.0010703206 -0.0001839399
-0.1607678235 0.0864754170 0.0795725584
0.0015646219 -0.0030947030 -0.0003334284
0.0032389164 -0.0018762350 -0.0628225803
-0.0013599396 -0.0022924840 -0.0536983013
0.0029265881 -0.0018413067 -0.0103118420
0.0013612509 -0.0023749769 -0.0404613018
0.0013513565 -0.0012060702 -0.0394357443
0.0007492304 -0.0021580458 -0.0359323025
-0.0034084320 -0.0015743375 -0.0237891674
-0.0030988455 0.0040303469 -0.0101273060
-0.0039486885 0.0032917261 -0.0149450302
-0.0039486885 0.0032917261 -0.0441402197
0.0016263723 -0.0027663708 -0.0624173880
0.0013319254 -0.0010636449 -0.0470181704
0.0037668943 0.0008636713 -0.0011219978
0.0038685799 0.0005000830 -0.0109375725
0.0036565065 0.0012584925 -0.0445035696
0.0021078587 0.0001801252 -0.0620737076
0.0002908707 -0.0038306117 -0.0627943277
-0.0002465248 -0.0021601915 -0.0618169308
0.0016627312 -0.0007534623 -0.0616514683
0.0010439157 0.0013087988 -0.0150719881
0.0023107529 -0.0008940697 -0.0624225140
0.0036998987 -0.0009626746 -0.0622738600
-0.1367106438 0.1732468903 0.0239449814
0.0011011362 -0.0019642711 -0.0461555719
-0.0009783506 0.0003827214 -0.0623837709
-0.1356031448 0.1628193408 0.0242461786
-0.1335640252 0.1593759805 0.0212631375
-0.0010287762 -0.0035787821 -0.0452990532
0.0009784698 0.0018737912 -0.0413701534
0.0008245707 -0.0000482202 -0.0390021801
-0.1356644481 0.1389141679 0.0186962336
-0.0007133484 0.0021196604 -0.0158321857
0.0017868280 0.0024759769 -0.0395848751
0.0032129288 -0.0004920363 -0.0490224361
-0.1341831833 0.1336478442 0.0182015598
0.0006980896 0.0019964576 -0.1130720377
-0.0028132200 -0.0011705160 -0.1254619360
0.0028954744 0.0011979938 -0.0150820017
0.0030118227 0.0015994906 -0.0950762033
-0.0012917519 0.0043061972 -0.0002418756
0.0017448664 -0.0004751384 -0.0376460552
0.0037403107 -0.0029938519 -0.0189602375
0.0033701658 -0.0044007003 -0.1047161818
-0.0041707754 -0.0016283989 -0.0096899271
-0.0008488894 0.0029358864 -0.0050401688
-0.0032218695 -0.0013740361 -0.0003248453
0.0003544092 0.0025953352 -0.0003997087
0.0028873682 -0.0008459687 -0.0634709597
-0.0028241873 0.0011887550 -0.1319519281
-0.1639814079 0.0755522549 0.0856634378
0.0019372702 -0.0008323491 -0.1151462793
0.0007971525 0.0033835471 -0.1303359270
-0.1645293534 0.0699984208 0.0883266926
-0.0039505959 -0.0017579794 -0.0444668531
0.0018631220 -0.0004900098 -0.0455240011
-0.0055365562 -0.0015099049 -0.0203317404
0.0012990236 0.0002774000 -0.0388580561
-0.1661586761 0.0281335115 0.1051585674
0.0008240938 -0.0031790137 -0.0190274715
0.0004566908 -0.0020849109 -0.0357265472
0.0036557913 -0.0013661385 -0.0498126745
-0.0026304722 0.0009905100 -0.0444599390
-0.0025351048 -0.0036013126 -0.0442495346
0.0021095276 0.0007190108 -0.0440340042
0.0019463301 0.0013507605 -0.0447933674
0.0014836788 0.0009717941 -0.0443986654
0.0020331144 0.0008766055 -0.0331132412
-0.0029129982 0.0017892718 -0.0440573692
-0.0031914711 -0.0004919171 -0.0446009636
-0.0010409355 -0.0017087460 -0.0448175669
-0.0000853539 0.0021563172 -0.0444960594
0.0002354383 -0.0024044514 -0.0441706181
0.0006849766 0.0035977960 -0.0204377174
0.0011981726 0.0029556751 -0.0443924665
-0.0003534555 0.0019502044 -0.0443850756
0.0001562834 0.0028527975 -0.0358916521
0.0010452271 -0.0012367964 -0.0312383175
0.0009903908 -0.0013048649 -0.0380338430
0.0000997782 -0.0024699569 -0.0593012571
0.0028856993 0.0029554367 -0.1143459082
0.0000678301 0.0032826662 -0.1289260387
-0.1621711105 -0.0852647424 0.0809834003
0.0022665262 0.0025597215 -0.0000146627
0.0005517006 -0.0034348369 -0.1090070009
0.0449459106 0.0932049006 0.0756470263
-0.0028538704 -0.0035485327 -0.0003088713
0.0024237633 -0.0000521243 -0.0299392939
-0.0032795668 0.0010329485 -0.0053991079
0.0013146400 0.0009065568 -0.0937472582
-0.0020936728 0.0017333329 -0.0010929108
0.0023926497 0.0011799335 -0.0005747080
0.0018635988 -0.0016700625 -0.0005024672
-0.0008982420 0.0022781491 -0.0906796455
0.0038576126 0.0001752675 -0.0052353144
0.0038316250 0.0003081858 -0.0092612505
0.0043231249 -0.0027194321 -0.0252940655
-0.0061992407 -0.0003760457 -0.0351344347
0.0025231838 0.0032582283 -0.1023629904
-0.1670842767 0.0233666506 0.1066526175
0.0008724928 0.0001633763 -0.0056085587
-0.0006343126 -0.0028233528 -0.0201162100
-0.1694952250 0.0070951181 0.1106126308
-0.0006006956 -0.0029000044 -0.0000588894
-0.1692902744 -0.0066325543 0.1105216667
-0.1682541668 -0.0177769810 0.1076921225
0.0026808977 0.0029982924 -0.0003639460
-0.0041218996 -0.0018633604 -0.0256253481
-0.0028842688 0.0002232790 -0.0113272667
-0.0035464764 0.0006709099 -0.0405925512
0.0000128746 0.0019062161 -0.1169583797
0.0010620356 -0.0036433935 -0.1319178343
-0.1674079150 -0.0638328046 0.0921708345
0.0011711121 -0.0027759671 -0.0395840406
0.0012258291 0.0010738969 -0.0575734377
-0.0029877424 -0.0002065897 -0.1059210300
0.0015276670 0.0035849214 -0.0045473576
0.0027173758 0.0021580458 -0.0645937920
-0.0010812283 0.0032395124 -0.0604219437
0.0014625788 0.0027749836 -0.0003570318
0.0018587112 0.0005994737 -0.0353119373
-0.0046272278 -0.0017400086 -0.1094080210
-0.0038579702 0.0023306906 -0.0303130150
0.0010344982 -0.0015843213 -0.1004893780
-0.0011742115 0.0010006428 -0.0052381754
-0.0030039549 -0.0005008578 -0.0202759504
0.0017712116 0.0024018586 -0.0948228836
0.0019947290 0.0045648813 -0.0051043034
0.0029753447 0.0017985106 -0.0093814135
0.0040935278 0.0006895363 -0.0345543623
-0.0010479689 -0.0013168454 -0.0390899181
-0.0013322830 0.0004162192 -0.0845209360
-0.0001616478 -0.0013233423 -0.0887759924
-0.0000692606 -0.0022107363 -0.0346118212
-0.0000692606 -0.0022107363 -0.1305185556
-0.0031124353 -0.0015552640 -0.0304925442
-0.0028784275 -0.0010593534 -0.0105041265
-0.0013476610 0.0025896430 -0.0253988504
0.0028482676 -0.0020149946 -0.1193090677
0.0010190010 0.0018158555 -0.1182420328
0.0005893707 0.0031923652 -0.0303149223
-0.0025863647 0.0025416613 -0.1193379164
