VERSION 0.7
FIELDS x y z
SIZE 4 4 4
TYPE F F F
COUNT 1 1 1
WIDTH 1214
HEIGHT 1
VIEWPOINT 0.0 0.0 0.0 1.0 0.0 0.0 0.0
POINTS 1214
DATA ascii
0.1200758740 0.0188489240 -0.0672541782
0.1188864410 0.0164160654 0.0001532855
0.1239723861 0.0120488936 0.0053635659
0.1226573214 0.0135904569 0.0295306277
0.1277640164 0.0073016728 -0.1974032968
0.1271623820 0.0111539951 -0.0569443591
0.1244207025 0.0096919993 0.0305658411
0.1246354878 0.0104749193 0.0405499749
0.1259746999 0.0101698190 0.0653824657
0.1316055804 0.0078052012 -0.1105190441
0.1301804930 0.0068830810 0.0008274140
0.1301804930 0.0068830810 0.0003237548
0.1277199239 0.0061732014 0.0403702073
0.1308128685 0.0064787241 0.0940787643
0.1349451393 0.0042478861 -0.1919764131
0.1330614388 0.0022202486 0.0391923003
0.1371405870 -0.0012652958 0.0005451264
0.1371886581 0.0002141060 0.0011295181
0.1371405870 -0.0012652958 0.0790049881
0.1424486786 -0.0087619033 -0.0136138098
0.1525509059 -0.0156173939 0.0492955260
0.1502488852 -0.0141612617 0.0680943578
0.1539466381 -0.0188837741 0.0806915611
0.1561045945 -0.0187150612 0.0828333944
0.1615168452 -0.0252808705 0.1146539301
0.1621586978 -0.0250899866 0.1189867109
0.1644967645 -0.0283405203 0.0545459799
0.1639188826 -0.0281907730 0.0653550476
0.1672339886 -0.0288927704 0.0682020038
0.1681057513 -0.0336050838 0.0108093126
0.1751550287 -0.0381797031 0.1324021667
0.1794606596 -0.0454010330 -0.0320271142
0.1785081476 -0.0417703614 0.0647208542
0.1786912233 -0.0428727530 0.0798277706
0.2093502283 -0.0753287226 -0.0576487668
0.2221656591 -0.0833778530 0.0004375997
0.2691037953 -0.1321050376 0.1778740734
-0.0537483841 0.1823094785 -0.1628447026
-0.0341206677 0.1643683314 0.0708691925
-0.0140106184 0.1417728066 0.0742202848
-0.0065411855 0.1355567276 0.0189721417
-0.0074748648 0.1361505389 0.0339346938
-0.0074371435 0.1338566095 0.0795124620
-0.0049793497 0.1323316097 0.0310168099
0.0005242489 0.1272027045 0.0045001330
0.0005242489 0.1272027045 0.0154368700
0.0005242489 0.1272027045 0.0126817049
0.0005242489 0.1272027045 0.0699094385
0.0041199019 0.1237743720 0.0039185109
0.0035997466 0.1237498224 0.0411633067
0.0046871617 0.1270946562 0.1092259437
0.0098578054 0.1233016849 -0.1205047294
0.0079527367 0.1216796711 0.0339554362
0.0098155001 0.1194390655 -0.2010646909
0.0134395557 0.1156354100 -0.1337193102
0.0141305793 0.1173782125 0.0001326623
0.0162116848 0.1102456376 0.0301074814
0.0214514043 0.1061241552 0.0449514203
0.0196356773 0.1067501605 0.0580799393
0.0238882303 0.1043292508 -0.1420007795
0.0306922626 0.0993291140 -0.1773334593
0.0312839709 0.0964652374 0.0408811383
0.0351461396 0.0944094807 0.0136371674
0.0402525254 0.0883139074 0.0192999672
0.0406466797 0.0902889073 0.0242521595
0.0424020961 0.0859559625 0.0006912770
0.0418305434 0.0850311294 0.0242324900
0.0449891128 0.0814685449 0.0298211407
0.0449485257 0.0836179927 0.0282581877
0.0462215766 0.0807861984 0.0455812924
0.0487867780 0.0825566798 0.0467843823
0.0528160259 0.0769834146 -0.1018998548
0.0553613268 0.0716116205 0.0101264538
0.0554244183 0.0716259032 0.0205128025
0.0647875071 0.0651556030 0.0001860681
0.0620710626 0.0643998310 0.0154923024
0.0655624643 0.0613071360 0.0255620312
0.0700728521 0.0590220168 0.0261106323
0.0753313452 0.0564819947 0.0000022474
0.0763565227 0.0506150685 0.0005281987
0.0763563588 0.0506152399 0.0100128474
0.0817394555 0.0475491472 0.0353999250
0.0853954256 0.0447408110 0.0286754202
0.0892908424 0.0367614441 0.0142370285
0.0900869146 0.0398108512 0.0200970005
0.0900869146 0.0398108512 0.0203136038
0.0908501968 0.0392357148 0.0245864224
0.0922603011 0.0381646380 0.0273960661
0.0954695344 0.0342463292 0.0133479657
0.0956362486 0.0335045531 0.0333037786
0.0969158411 0.0317469388 0.0003486695
0.0969158411 0.0317469388 0.0200450253
0.0966257900 0.0298428275 0.0303603243
0.0968710855 0.0306855105 0.0406191163
0.0990919247 0.0316504613 0.0425557904
0.1030565053 0.0278727226 -0.1720665544
0.1020451412 0.0258758683 -0.1421271414
0.1012152880 0.0265384726 0.0153678479
0.1097168922 0.0213672556 -0.1365192980
0.1111286283 0.0153311798 -0.1337786764
0.1146481782 0.0187016148 -0.1317856163
0.1103186235 0.0163430255 0.0408408456
0.1143803149 0.0123468293 0.0405568890
0.1227899566 0.0073605203 0.0340754800
0.1306144446 -0.0009872530 0.0108818831
0.1289108992 -0.0017762842 0.0920512527
0.1334408522 -0.0033132955 0.0140871825
0.1354440898 -0.0053956872 0.0171176028
0.1331220865 -0.0041558533 0.0390577130
0.1315001100 -0.0048920740 0.0753918737
0.1362209767 -0.0081772208 0.0062670810
0.1448314935 -0.0163669754 0.0003838363
0.1426077932 -0.0154367518 0.0753832906
0.1503587663 -0.0213286281 0.0056069912
0.1613543779 -0.0296270121 0.1172858328
0.1604719013 -0.0335924178 -0.0200654175
0.1677717716 -0.0410891250 -0.0041417973
0.1688967794 -0.0414148383 0.0140888793
0.1699510366 -0.0397127196 0.0142098768
0.1832087338 -0.0540275499 0.0726547092
0.1883801967 -0.0602385849 -0.0249013808
0.1964538544 -0.0692871958 -0.0419870503
0.1994266361 -0.0702811033 0.1118453592
0.2052461505 -0.0750616118 0.1249844879
0.2117088288 -0.0832522139 -0.0505385287
0.2103063762 -0.0814864710 0.1039590687
0.3682787120 -0.2401321381 0.2362882942
-0.0492950901 0.1701945066 0.0605066828
-0.0186338536 0.1436274946 0.0005665841
-0.0056057996 0.1287773550 0.0004426065
-0.0081837326 0.1275661141 0.0257611107
-0.0077184523 0.1305426359 0.0949543566
-0.0032341331 0.1237744540 0.0555200391
0.0022080787 0.1233301014 0.0000239434
-0.0007778991 0.1207191497 0.0052021565
0.0009422824 0.1220196337 0.0389257483
0.0033267192 0.1169597134 0.0310885739
0.0090880878 0.1145099029 0.0444491915
0.0112952339 0.1102445573 0.0004178109
0.0168043692 0.1078670174 -0.1357195228
0.0139301708 0.1061516777 0.0711307377
0.0173397269 0.1029329672 0.0208167862
0.0181823894 0.1026419178 0.0254667830
0.0193174277 0.1006169468 -0.2111127228
0.0226534326 0.0998623967 0.0251586270
0.0226534326 0.0998623967 0.0402914099
0.0218705554 0.1027390435 0.0437881760
0.0264591482 0.0993887708 -0.1418000311
0.0245108027 0.0983826667 0.0084308209
0.0264066942 0.0921307281 0.0042508664
0.0334986039 0.0921832025 -0.1770473570
0.0316022225 0.0894443691 0.0285886358
0.0320746861 0.0898677781 0.0333558135
0.0339696929 0.0852457881 0.0557055287
0.0398380719 0.0845953152 -0.1817632765
0.0383892506 0.0836491287 -0.1520261616
0.0386592895 0.0839864388 0.0157141518
0.0400621034 0.0802209526 0.0157317948
0.0417902507 0.0806734040 0.0173476767
0.0417162850 0.0806623176 0.0264613461
0.0420760512 0.0800942630 0.0490437560
0.0409424677 0.0805463269 0.0846549124
0.0449349433 0.0760514289 -0.1818401664
0.0469648726 0.0773217157 0.0100927176
0.0480871499 0.0721116886 -0.1813590378
0.0475493222 0.0716894343 -0.1521403641
0.0498529002 0.0729309842 0.0174046587
0.0477649048 0.0731417611 0.0454858355
0.0491824709 0.0725957081 0.0840172619
0.0514270738 0.0683360696 -0.1821452230
0.0530053005 0.0693474337 -0.1819224209
0.0544080064 0.0684167594 0.0002839389
0.0518826097 0.0674122721 0.0106005492
0.0523166806 0.0684848726 0.0139740529
0.0541843325 0.0709320456 0.0324975066
0.0512392372 0.0696739182 0.0447169356
0.0541843325 0.0709320456 0.0881005377
0.0549201891 0.0643589124 -0.1814393848
0.0557860136 0.0664735585 -0.1803480238
0.0577017404 0.0643636286 0.0050257267
0.0552102700 0.0651763007 0.0050056996
0.0568915941 0.0666638315 0.0072398009
0.0571903735 0.0673269257 0.0142029347
0.0558539815 0.0651544258 0.0442734770
0.0571057424 0.0642141327 0.0851826519
0.0600953437 0.0623730496 -0.1811257452
0.0593657680 0.0635884106 -0.1066058800
0.0595608801 0.0621110015 0.0061739506
0.0598868020 0.0622989349 0.0031376900
0.0593850426 0.0617887489 0.0052307667
0.0599063151 0.0629809126 0.0064263167
0.0608064458 0.0623325668 0.0067175450
0.0583817810 0.0645452365 0.0128960432
0.0595831759 0.0617264137 0.0442573838
0.0617962517 0.0574732199 -0.1820739359
0.0634768158 0.0594493151 -0.1838233322
0.0653981566 0.0606368892 -0.1049446985
0.0629419461 0.0587788299 0.0057265582
0.0647304431 0.0593673252 0.0030726017
0.0624258108 0.0590033904 0.0045115771
0.0636078194 0.0595031232 0.0062324824
0.0630648434 0.0603278950 0.0066329064
0.0629878417 0.0597342588 0.0122451605
0.0624258108 0.0590033904 0.0440531783
0.0657953471 0.0538444482 -0.1819898933
0.0674527586 0.0554948263 -0.1818594784
0.0672688633 0.0552569143 0.0041993679
0.0658316165 0.0547397286 0.0047756257
0.0670997724 0.0556008331 0.0072315754
0.0671618506 0.0558862910 0.0139021697
0.0660848767 0.0540223494 0.0434570126
0.0695155412 0.0505842753 -0.1817180961
0.0703489482 0.0528405793 -0.1828149408
0.0686012506 0.0505419038 0.0104534449
0.0695348084 0.0519249104 0.0150101008
0.0692829341 0.0518214814 0.0447022729
0.0732432157 0.0474959537 -0.1816537231
0.0754972622 0.0478012152 -0.1820286363
0.0727201700 0.0469119325 -0.1519951671
0.0739936456 0.0504579023 0.0184213948
0.0757581219 0.0485610850 0.0272815060
0.0722966492 0.0480379164 0.0452186875
0.0726904646 0.0484419353 0.0851050466
0.0779797286 0.0423497781 0.0202059578
0.0757734254 0.0438457392 0.0305094551
0.0754537806 0.0439643376 0.0457054190
0.0775261819 0.0449169837 0.0479448847
0.0798735023 0.0388682187 -0.4419082403
0.0814327747 0.0404225141 -0.1520445198
0.0791539773 0.0409395881 0.0101756873
0.0794156268 0.0406368040 0.0146292271
0.0794156268 0.0406368040 0.0178184342
0.0795048550 0.0406980440 0.0254187416
0.0794156268 0.0406368040 0.0861515850
0.0818402544 0.0423008464 0.0891930908
0.0860671476 0.0390233956 -0.1822180599
0.0884809867 0.0344588347 -0.4418981075
0.0859308541 0.0336330943 0.0558435731
0.0920879692 0.0322166719 -0.1469169706
0.0915518776 0.0276764780 -0.1039400026
0.0908246562 0.0315718167 0.0293438267
0.1002940536 0.0267052222 -0.1415028423
0.0966498107 0.0220985971 0.0030838074
0.0961672738 0.0239148308 0.0206041168
0.0977628157 0.0219383016 0.0305937640
0.0992071405 0.0255041514 0.0318313353
0.0978623331 0.0242931414 0.0597083382
0.0998474061 0.0205405951 0.0392495207
0.1017010733 0.0196949188 0.0422247462
0.1055104434 0.0178313460 -0.1365859360
0.1045703441 0.0182110127 0.0003707233
0.1044242606 0.0166216549 0.0260637831
0.1104776263 0.0151160620 -0.2071211189
0.1098053455 0.0158148520 -0.1337748617
0.1067509353 0.0127057945 0.0709159225
0.1080153808 0.0142903896 0.1342041343
0.1171624735 0.0029297485 0.0305917095
0.1186857820 0.0041208607 0.0600656085
0.1207873523 -0.0011108698 0.0002796474
0.1211919188 -0.0019408676 0.0107842507
0.1226568148 0.0003979874 0.0389636569
0.1210689768 -0.0014585813 0.0454218201
0.1296989620 -0.0084123900 0.0931460708
0.1337347776 -0.0101243109 0.0192599129
0.1440483630 -0.0174867753 0.0002316060
0.1459165663 -0.0225394238 0.0805953592
0.1484305859 -0.0258376244 0.0487007909
0.1484305859 -0.0258376244 0.0683451742
0.1548898965 -0.0332644545 0.0724226087
0.1563448012 -0.0345975570 0.1221413463
0.1625462025 -0.0398033671 0.0725097507
0.1674135327 -0.0465355851 -0.0023329156
0.1720460951 -0.0487447269 -0.1752106100
0.1756492406 -0.0530661382 0.0794464201
0.1776253283 -0.0550365858 0.0814411491
0.1781776249 -0.0579395778 0.0682043880
0.2077787071 -0.0853738338 -0.0463070758
0.2073288262 -0.0856270567 -0.0492436774
0.2241993695 -0.1024658680 0.1050695032
0.2259815484 -0.1034801304 0.1287631840
-0.0592509620 0.1760602295 -0.1677281410
-0.0535257757 0.1699522436 -0.0069363015
-0.0498681031 0.1653930694 -0.0258136895
-0.0295405313 0.1438164860 0.0803661197
-0.0218872316 0.1366810501 0.0180525873
-0.0089646084 0.1240934432 0.0006514611
-0.0034661095 0.1165391952 0.0804096311
0.0009183851 0.1134354547 0.0004032674
0.0006780006 0.1148093343 0.0492642932
0.0048395805 0.1100255027 0.0054338994
0.0043628365 0.1096962318 0.0409802012
0.0063566770 0.1062543914 0.0112427296
0.0099916952 0.1040135920 0.0003286424
0.0102269379 0.1037470773 0.0262738299
0.0091064218 0.1036761850 0.0453883223
0.0134536820 0.1000912786 0.0022117915
0.0143347196 0.0990930721 0.0402469449
0.0139698973 0.0995064452 0.0403493457
0.0202886388 0.0987820253 -0.2113650888
0.0207329690 0.0944858938 0.0000456395
0.0223293658 0.0932342559 0.0009454312
0.0207329690 0.0944858938 0.0056969943
0.0219604541 0.0918820575 0.0232534241
0.0222523212 0.0936352462 0.0302074980
0.0234443378 0.0894767717 -0.1804721653
0.0254781805 0.0900255069 0.0497308187
0.0275556128 0.0867386311 -0.2156963199
0.0286660995 0.0861414075 -0.1456458420
0.0260691829 0.0863588005 0.0051200213
0.0291869957 0.0871233046 0.0074474635
0.0256586727 0.0868751854 0.0805448145
0.0298574045 0.0833006799 -0.2167579979
0.0329575352 0.0816460699 0.0050426545
0.0314339697 0.0808483511 0.0449503474
0.0337601379 0.0783255249 0.0110736908
0.0409333222 0.0747292638 0.0051343264
0.0409333222 0.0747292638 0.0088589014
0.0390856043 0.0768014565 0.0078792395
0.0399639457 0.0751734078 0.0146107497
0.0406630337 0.0748531297 0.0197611880
0.0411256365 0.0758300945 0.0172514748
0.0372957960 0.0763958320 0.0216028523
0.0367485210 0.0757168084 0.0747427791
0.0445216820 0.0750879645 -0.1513482183
0.0443363413 0.0717556328 0.0103685679
0.0425035022 0.0719696954 0.0104745449
0.0410648622 0.0710063875 0.0405392461
0.0463102050 0.0680401772 0.0171221327
0.0462213121 0.0691421330 0.0585662834
0.0447374955 0.0702916235 0.0679715723
0.0506110825 0.0654857829 0.0010535541
0.0483980775 0.0650513768 0.0003517690
0.0493663587 0.0652535111 0.0044824900
0.0491930097 0.0652211905 0.0052739205
0.0487615913 0.0651406869 0.0107823433
0.0483980775 0.0650513768 0.0260004830
0.0493501835 0.0642210618 0.0552389137
0.0481221415 0.0645726323 0.0551856570
0.0489913747 0.0672943816 0.0578909032
0.0498013981 0.0663803518 0.0679156631
0.0549201891 0.0643589124 -0.1814393848
0.0527599789 0.0611725599 0.0011542860
0.0518813878 0.0616188124 0.0553300194
0.0531447381 0.0633937418 0.0677516311
0.0515594706 0.0610902905 0.0753998607
0.0543539338 0.0581846423 0.0003716769
0.0547725335 0.0592116788 0.0006938996
0.0543596223 0.0581697673 0.0049998583
0.0556214154 0.0583010130 0.0551256947
0.0568177104 0.0611189492 0.0680452436
0.0617962517 0.0574732199 -0.1820739359
0.0606535375 0.0563944131 0.0413341336
0.0587951392 0.0541562885 0.0510856919
0.0591390319 0.0541649312 0.0546194129
0.0597400032 0.0550495498 0.0668161958
0.0628587008 0.0520572104 0.0009612861
0.0605248623 0.0518552400 0.0001450601
0.0607299507 0.0518730283 0.0090427222
0.0623403788 0.0509330668 0.0551355891
0.0634576529 0.0521090925 0.0673508495
0.0659759268 0.0470068008 -0.4422497749
0.0675029457 0.0510902777 0.0011590543
0.0669003353 0.0485038087 0.0054091038
0.0665866733 0.0487247407 0.0060777487
0.0654405728 0.0472790636 0.0553785376
0.0671239197 0.0486812890 0.0677939504
0.0706922486 0.0419920087 -0.1858364493
0.0724983886 0.0469732434 -0.1515118927
0.0683195814 0.0463972241 0.0087437453
0.0726157427 0.0457356460 0.0174069237
0.0701607689 0.0436779633 0.0498408787
0.0696854368 0.0456182584 0.0507845096
0.0717988089 0.0446396172 0.0686062425
0.0738887414 0.0420848019 0.0041895928
0.0726873502 0.0419520810 0.0105374875
0.0739455968 0.0417652838 0.0136503996
0.0748966038 0.0414890535 0.0128300013
0.0798735023 0.0388682187 -0.4419082403
0.0754804909 0.0368034840 -0.1521617025
0.0771244392 0.0376915820 0.0077081742
0.0766705200 0.0372514017 0.0206537079
0.0771699846 0.0369634405 0.0499476306
0.0801398084 0.0325105079 -0.2173331827
0.0804227218 0.0335704088 -0.1513757557
0.0819317549 0.0324260481 0.0101525607
0.0797520429 0.0349814557 0.0238427948
0.0794004127 0.0330549628 0.0439585261
0.0787963793 0.0336215459 0.0490257256
0.0839179680 0.0299441908 0.0000253740
0.0849007890 0.0306689888 0.0484897904
0.0834403187 0.0304327980 0.0851675123
0.0876856223 0.0275627617 -0.2176185697
0.0879008025 0.0272406805 0.0082450928
0.0881336182 0.0272910036 0.0883605331
0.0932808444 0.0226766821 0.0007117810
0.0895604193 0.0243351180 0.0201477837
0.0935932770 0.0181165412 -0.1802673936
0.0934975669 0.0201821793 0.0362504534
0.0931866467 0.0228570290 0.0530057959
0.0990870371 0.0170410164 0.0025154175
0.1022352129 0.0122037362 0.0289740078
0.1007101983 0.0127981780 0.0311623644
0.1030917838 0.0132288793 0.0424595885
0.1069938242 0.0071169958 0.0157972407
0.1071274355 0.0065373080 0.0159022640
0.1076933816 0.0047107479 0.0187699627
0.1066271886 0.0064570182 0.0499285273
0.1089361235 0.0035702542 0.0570465140
0.1066271886 0.0064570182 0.1337126344
0.1163132563 0.0009591727 0.0493699126
0.1215769276 -0.0047286712 0.0418124013
0.1205194667 -0.0077116564 0.0354388766
0.1233118623 -0.0106442338 0.1969803423
0.1256571263 -0.0105737224 0.0098377289
0.1299351156 -0.0152138378 0.0941998810
0.1424562633 -0.0290497206 0.0442014746
0.1502009332 -0.0357502326 0.0801478475
0.1606441140 -0.0442238152 0.0571569018
0.1613487005 -0.0487850606 0.0211401079
0.1645106226 -0.0447238013 0.1489037126
0.1762923151 -0.0597910061 0.0838680118
0.1775506437 -0.0636214763 0.0705098957
0.1799539030 -0.0647682548 0.0730234236
0.1830506921 -0.0684434548 0.0866596550
0.1872031838 -0.0727445409 -0.0092080729
0.2071231902 -0.0913668796 0.1049126238
-0.0478723831 0.1572670490 0.0554917865
-0.0420924686 0.1483054757 0.0806634277
-0.0238655843 0.1333814710 0.0282924008
-0.0221032351 0.1278890371 0.0798960775
-0.0202585943 0.1289143562 0.0946341604
-0.0172649454 0.1245740280 0.0263695549
-0.0123854782 0.1223326102 0.0001015487
-0.0120192645 0.1173908561 0.0154089751
-0.0096500218 0.1188977733 0.0444352441
-0.0027557875 0.1098151878 0.0252630543
0.0007224865 0.1072099432 0.0543205552
0.0037755622 0.1021681279 0.0005761209
0.0057848501 0.1052012891 0.0005158010
0.0089855241 0.1014445275 0.0042145075
0.0105725024 0.0962512121 0.0163154434
0.0142160133 0.0933070034 0.0294382405
0.0131867826 0.0946398377 0.0528853349
0.0146127418 0.0935384333 0.0843896717
0.0185705833 0.0893273726 0.0043035569
0.0183091052 0.0896055400 0.0253437590
0.0202639177 0.0889145434 0.0595427565
0.0215717759 0.0851137862 0.0000762763
0.0237885751 0.0867008194 0.0151183428
0.0230582952 0.0858206674 0.0399987511
0.0206257477 0.0871359035 0.0482182316
0.0215717759 0.0851137862 0.0755711645
0.0234665293 0.0814743191 0.0104888501
0.0290877391 0.0789503083 0.0109953703
0.0296735801 0.0794239566 0.0157365631
0.0291585047 0.0801849216 0.0170649122
0.0291486420 0.0791183487 0.0299222302
0.0274540428 0.0796092376 0.0685871691
0.0311233066 0.0751745850 0.0008987012
0.0331118777 0.0769859701 0.0014681640
0.0322371200 0.0751794353 0.0213134121
0.0297018923 0.0749838576 0.0464389436
0.0308553372 0.0746423528 0.0557321124
0.0392046683 0.0675618947 0.0001771274
0.0382424146 0.0684374943 0.0052685561
0.0381390266 0.0676142424 0.0151102366
0.0396165289 0.0677008927 0.0272947382
0.0373145081 0.0681146532 0.0324123912
0.0378037915 0.0674898252 0.0409142785
0.0439567231 0.0667474866 -0.1539141983
0.0424598828 0.0646098852 0.0059382739
0.0408547185 0.0662711039 0.0334119610
0.0460100360 0.0623214394 -0.2216011137
0.0473168232 0.0633733198 -0.1551494449
0.0472630635 0.0610907525 0.0044766488
0.0471276455 0.0608762689 0.0338076167
0.0493468381 0.0586420074 -0.2217233032
0.0484755412 0.0571540706 0.0265003275
0.0480472036 0.0582571775 0.0351104550
0.0529383048 0.0549055748 -0.2217626423
0.0546998940 0.0553312302 -0.1556459516
0.0528905094 0.0531714447 0.0238329004
0.0515661724 0.0539825186 0.0302160811
0.0517828465 0.0543549694 0.0349980406
0.0565909296 0.0513025895 -0.2226465791
0.0564592518 0.0501881242 0.0250241589
0.0564241856 0.0501307175 0.0307874512
0.0555871911 0.0507320277 0.0349552445
0.0599961616 0.0482888147 -0.2205808014
0.0582065322 0.0472858474 0.0307791065
0.0589337759 0.0470158122 0.0348809771
0.0656504855 0.0471923351 -0.4409947395
0.0636732951 0.0450262539 -0.2215421051
0.0643025190 0.0465226062 -0.1553729624
0.0620469972 0.0459611304 0.0350059085
0.0691640377 0.0380564481 0.0001971545
0.0692326576 0.0377879702 0.0051694931
0.0677285641 0.0382757373 0.0184929203
0.0680264980 0.0372090414 0.0355471186
0.0700238347 0.0370852984 0.0345454030
0.0680264980 0.0372090414 0.0406625085
0.0754804909 0.0368034840 -0.1521617025
0.0727313086 0.0352774933 0.0191317629
0.0725577474 0.0336142965 0.0544891171
0.0753528848 0.0302189030 0.0000970187
0.0762446672 0.0323432311 0.0107978405
0.0759446248 0.0305521153 0.0204577278
0.0759660378 0.0303638037 0.0211918186
0.0759476572 0.0313593112 0.0183425974
0.0780146644 0.0311898403 0.0683545917
0.0826672986 0.0227493010 0.0105739655
0.0872970894 0.0203145202 0.0000843826
0.0881583169 0.0197704043 0.0043970169
0.0881820470 0.0205005147 0.0438605361
0.0887401551 0.0182240792 0.0470039658
0.0864193812 0.0200702790 0.0844560713
0.0915602818 0.0175647326 0.0887158960
0.0959392190 0.0147466687 0.0000409904
0.0945360661 0.0129834134 0.0298626255
0.0945360661 0.0129834134 0.2116993517
0.1012604237 0.0051341550 0.0401588492
0.1139236540 -0.0052340114 0.0515198521
0.1196359396 -0.0103387116 0.0444352441
0.1211885884 -0.0150919911 0.0855194181
0.1243647784 -0.0178471301 0.0307670664
0.1317510605 -0.0216081049 0.0266520809
0.1281354427 -0.0218228009 0.0350769572
0.1316076666 -0.0216969494 0.0841359943
0.1289916933 -0.0215152130 0.0940282196
0.1321088374 -0.0259909704 0.0160054062
0.1329628974 -0.0273573976 0.1879614443
0.1426240206 -0.0366482139 0.0651185364
0.1440871060 -0.0371397287 0.0670022815
0.1520170718 -0.0425648279 0.0732662529
0.1533844918 -0.0447739996 0.1216037124
0.1525458097 -0.0459523834 0.1559350342
0.1562544405 -0.0498716608 0.0554240756
0.1595756561 -0.0507800505 0.0590759329
0.1649080068 -0.0567679107 0.0014029843
0.1719559431 -0.0639879480 0.0794018358
0.1948589683 -0.0845458284 0.1143119186
0.2045970559 -0.0954284072 -0.0447370894
0.2170059979 -0.1101343185 0.2245451063
0.2302019596 -0.1195938885 -0.0700265095
0.2513640225 -0.1407111734 0.1015814394
-0.1027822271 0.2029561847 0.0000811639
-0.0785550103 0.1798850000 -0.0599116273
-0.0488664992 0.1503947228 0.0749275535
-0.0338609628 0.1350575686 0.0004480901
-0.0311265383 0.1337767094 0.0801664442
-0.0265610646 0.1289981306 0.0251407456
-0.0247786120 0.1240036711 0.0904617161
-0.0179025009 0.1206748113 0.0011056486
-0.0121848173 0.1102827042 0.0101399245
-0.0098136775 0.1116499081 0.0541411452
0.0014273926 0.1003267318 0.0037742676
0.0014273926 0.1003267318 0.0095956149
0.0000583365 0.1007908955 0.0313447528
-0.0008519933 0.0994808450 0.0340791754
-0.0000394442 0.1001202539 0.0399721675
0.0029665956 0.0964405388 0.0160765480
0.0085848365 0.0952799991 0.0012255731
0.0071928944 0.0933342502 0.0294440817
0.0120299403 0.0912080035 0.0081608118
0.0128406771 0.0911052823 0.0506002717
0.0146343205 0.0860152170 0.0456985049
0.0125960568 0.0864739865 0.0531912856
0.0166980419 0.0822539106 0.0003598752
0.0166891068 0.0815424696 0.0247117113
0.0207168702 0.0810349807 0.0000773492
0.0232647303 0.0811207071 0.0243611168
0.0220473614 0.0793994293 0.0375530533
0.0203392338 0.0777960792 0.0552429967
0.0254026726 0.0747132078 0.0004617992
0.0245687552 0.0747504607 0.0004033866
0.0244399533 0.0747561976 0.0052207531
0.0244399533 0.0747561976 0.0240011048
0.0241494216 0.0753228441 0.0586473458
0.0291568600 0.0708136931 0.0149032893
0.0290891733 0.0708600581 0.0289022755
0.0279681925 0.0729660913 0.0340175442
0.0271994341 0.0708404556 0.0507411771
0.0319764838 0.0678393915 0.0046269717
0.0322829783 0.0680869594 0.0103479447
0.0310471039 0.0673254132 0.0301205944
0.0320466608 0.0694785267 0.0331847481
0.0343894064 0.0635531470 -0.4410012960
0.0340077095 0.0638214499 0.0005192580
0.0341996476 0.0650461540 0.0160827469
0.0346887596 0.0653392002 0.0197111201
0.0343479179 0.0644506142 0.0301239323
0.0336058326 0.0646756142 0.0413984470
0.0362292267 0.0627681538 0.0004705014
0.0407867357 0.0611986071 0.0054100575
0.0379558168 0.0621342659 0.0193537306
0.0395028219 0.0609763712 0.0400230400
0.0393052325 0.0641121939 0.0422329716
0.0410675593 0.0567229912 0.0001920285
0.0404980704 0.0581011921 0.0005898299
0.0425614528 0.0562106110 0.0196471047
0.0415275060 0.0586903654 0.0194482636
0.0411374383 0.0592019856 0.0236357283
0.0456799418 0.0527530126 0.0142247500
0.0452063382 0.0551763289 0.0195903610
0.0452963635 0.0544985980 0.0254474692
0.0481447726 0.0501962155 0.0009130063
0.0509134829 0.0536647327 0.0114320340
0.0481677018 0.0505001768 0.0208182167
0.0484798402 0.0512376651 0.0190464091
0.0493591726 0.0508543812 0.0250330381
0.0504063331 0.0531694628 0.0218103956
0.0493329167 0.0501927882 0.0356038325
0.0524488539 0.0507396124 0.0142493071
0.0523297451 0.0475956276 0.0191614460
0.0530317612 0.0478862114 0.0247285776
0.0526678748 0.0474866405 0.0351104550
0.0561664999 0.0429867432 0.0000910583
0.0557092056 0.0446317345 0.0192847084
0.0565136373 0.0445844717 0.0240793638
0.0562075824 0.0478449352 0.0363923423
0.0553338490 0.0430709608 0.0579544418
0.0585955903 0.0397871248 0.0003319802
0.0600604452 0.0400181711 0.0003504577
0.0576178692 0.0418714546 0.0006105723
0.0570724458 0.0418916419 0.0192782711
0.0593323596 0.0406945013 0.0190719198
0.0607905127 0.0415302329 0.0246593785
0.0624689721 0.0387622789 0.0000742498
0.0618462525 0.0387182385 0.0056322636
0.0626371801 0.0376537740 0.0193389487
0.0638666227 0.0377228633 0.0230390243
0.0624231584 0.0367261246 0.0300444197
0.0635676458 0.0399027951 0.0347772650
0.0686859712 0.0306812953 0.0046111168
0.0690404251 0.0320679285 0.0105894627
0.0686650202 0.0299854092 0.0305901598
0.0702654645 0.0311625637 0.0335645787
0.0710262135 0.0297793541 0.0332163386
0.0693143755 0.0317901783 0.0378767066
0.0727310553 0.0288051721 0.0294085573
0.0735864639 0.0272087324 0.0340729766
0.0733764917 0.0271289069 0.0334656052
0.0717382878 0.0265839063 0.0509934239
0.0771283582 0.0255268626 0.0004247251
0.0760043859 0.0226789154 0.0053108754
0.0763246641 0.0229526609 0.0056036534
0.0763907507 0.0248853453 0.0245325398
0.0779283941 0.0236514118 0.0287024807
0.0767581463 0.0225894805 0.0543371253
0.0760043859 0.0226789154 0.0656858534
0.0757396668 0.0229025893 0.0751840919
0.0808575600 0.0190898180 0.0003380599
0.0806271806 0.0213378463 0.0243515801
0.0827606544 0.0165106822 0.0000721040
0.0823140219 0.0163477845 0.0202870201
0.0823140219 0.0163477845 0.0246311259
0.0851905867 0.0173971988 0.0303426813
0.0852829367 0.0134275146 0.0443483405
0.0900008753 0.0140461326 0.0464770012
0.0915356725 0.0099417176 0.0087438645
0.0889105648 0.0098221153 0.0444994681
0.0904607549 0.0094974898 0.0860179514
0.0949470773 0.0074261827 0.0008430305
0.0949470773 0.0074261827 0.0301676821
0.0972689465 0.0031941358 0.0045862021
0.0980661958 0.0006696238 0.0053742947
0.0983233750 0.0023771613 0.0101911845
0.1034697443 -0.0005743456 0.0268829279
0.1007217839 -0.0007947262 0.0347105078
0.1009543538 -0.0008076232 0.0399422459
0.1032140553 -0.0012966531 0.0418580584
0.1069365889 -0.0053299800 0.0001494708
0.1052862033 -0.0039612190 0.0007413449
0.1082028896 -0.0067759962 0.0208251309
0.1118442938 -0.0107821384 0.0159582924
0.1106493920 -0.0109191583 0.0252837967
0.1123672128 -0.0106098000 0.0542468838
0.1175403148 -0.0154737988 0.0465476327
0.1290730387 -0.0275385883 0.0292066168
0.1298010051 -0.0293710474 0.0383947901
0.1290730387 -0.0275385883 0.0453442149
0.1290730387 -0.0275385883 0.0552543215
0.1330988854 -0.0323306099 0.0169054363
0.1354577392 -0.0370704755 0.1773135513
0.1366797090 -0.0380143560 0.1822203249
0.1397315264 -0.0386272185 0.0801594108
0.1464416385 -0.0466572866 0.0700710863
0.1518284678 -0.0495519750 0.1239036173
0.1513045877 -0.0526633412 0.1261896938
0.1547848135 -0.0516308285 0.0754775852
0.1564639956 -0.0543917418 0.0786377043
0.1584817171 -0.0580069833 0.0254999492
0.1634751409 -0.0605653636 0.0204852913
0.1612734348 -0.0623137169 0.0249859188
0.1624564081 -0.0615003407 0.0208155010
0.1658259481 -0.0626384690 -0.0965465754
0.1830179989 -0.0826055929 -0.0189053919
0.1838262826 -0.0790809169 -0.0076882737
0.2056326121 -0.1045847163 -0.0439648516
0.2552227676 -0.1523312777 0.1823875755
-0.0388129838 0.1311158538 0.0733144134
-0.0320492573 0.1239096671 0.0303071570
-0.0252205208 0.1190788522 0.0000667396
-0.0202151835 0.1154668927 0.0010040823
-0.0195449218 0.1149679124 0.0007381263
-0.0201182868 0.1135584414 0.0310808253
-0.0205782987 0.1150706038 0.0494073443
-0.0160461217 0.1116131768 0.0057378830
-0.0136792604 0.1056866720 0.0539650731
-0.0135312406 0.1058497801 0.0708963722
-0.0099086771 0.1058951765 0.0005475106
-0.0095526623 0.1053237021 0.0057610096
-0.0056912312 0.0999770164 0.0050549330
-0.0055482481 0.0999510363 0.0151575627
-0.0067886086 0.1006144062 0.0406456999
0.0018767623 0.0934066400 0.0055842223
-0.0010248796 0.0923852548 0.0202060770
-0.0009029277 0.0924281776 0.0294668507
0.0003820032 0.0928804576 0.0795345157
0.0035615219 0.0907128006 0.0139987292
0.0022817329 0.0888006389 0.0153950276
0.0072434917 0.0869326293 0.0001642528
0.0072434917 0.0869326293 0.0110992016
0.0106448689 0.0831526890 0.0685504526
0.0138089592 0.0788848549 0.0257242750
0.0138089592 0.0788848549 0.0549769215
0.0180083029 0.0753848180 0.0333657078
0.0180119276 0.0732779801 0.0001671138
0.0220909826 0.0709904134 0.0301092695
0.0229955390 0.0727685913 0.0331886820
0.0248467978 0.0693018436 0.0006477656
0.0256560594 0.0681134313 0.0046619000
0.0243792199 0.0685251653 0.0159675907
0.0244966000 0.0674980879 0.0209292006
0.0245422013 0.0693882033 0.0192061495
0.0233047698 0.0681732818 0.0288011860
0.0270714760 0.0641515851 0.0002873960
0.0270714760 0.0641515851 0.0148869576
0.0266645085 0.0651717335 0.0238665454
0.0270714760 0.0641515851 0.0256038737
0.0314061120 0.0662276521 0.0399974398
0.0270714760 0.0641515851 0.0546469502
0.0326657519 0.0644418597 -0.4412860870
0.0324527435 0.0614892952 0.0059855999
0.0334541127 0.0618766658 0.0383179002
0.0330932066 0.0582922883 0.0005806508
0.0363581963 0.0582474843 0.0004068437
0.0363911130 0.0577591285 0.0107115330
0.0364020281 0.0574217439 0.0096069397
0.0347131640 0.0572844706 0.0203327965
0.0368456244 0.0565640964 0.0197301935
0.0341072194 0.0571487248 0.0360670500
0.0375893079 0.0547804013 0.0001766505
0.0380979329 0.0542799495 0.0111023011
0.0386036560 0.0558110178 0.0127520384
0.0375893079 0.0547804013 0.0553324036
0.0432382077 0.0517161973 0.0011125627
0.0422372594 0.0522940755 0.0031388821
0.0411866680 0.0508830398 0.0100135626
0.0459593348 0.0486696139 0.0028894963
0.0444821268 0.0468903854 0.0056800665
0.0450841971 0.0474159978 0.0096063437
0.0495005548 0.0450494960 0.0031947913
0.0476250201 0.0433327705 0.0056357207
0.0485238843 0.0441811420 0.0098423781
0.0469324961 0.0444511734 0.0808534697
0.0524337217 0.0417488925 0.0034107985
0.0516458713 0.0402256623 0.0099006714
0.0510398000 0.0402420126 0.1167059019
0.0572389662 0.0356247835 0.0008590045
0.0586044006 0.0373391919 0.0007811608
0.0546417087 0.0365630575 0.0106096091
0.0585019849 0.0330818556 0.0005721870
0.0578483716 0.0335166417 0.0201359820
0.0578483716 0.0335166417 0.0238803457
0.0633209720 0.0318662561 0.0059381546
0.0617069975 0.0310552660 0.0373918824
0.0663266703 0.0271778814 0.0009206357
0.0652091876 0.0262933038 0.0149031701
0.0672861710 0.0275491104 0.0186669044
0.0673267767 0.0280685704 0.0277470183
0.0652763695 0.0293957330 0.0336198620
0.0715023503 0.0237914249 0.0004287782
0.0691538006 0.0246829577 0.0000432553
0.0691480637 0.0232546851 0.0208750796
0.0702945441 0.0233137738 0.0186040234
0.0691480637 0.0232546851 0.0286089014
0.0743687972 0.0235637054 0.0003136220
0.0720682517 0.0198941473 0.0299957823
0.0753919110 0.0185972471 0.0344666056
0.0752284676 0.0162116513 0.0192806553
0.0786449760 0.0170990732 0.0319957547
0.0771544501 0.0184609015 0.0337385945
0.0789786056 0.0138918888 0.0039212527
0.0794058964 0.0130165825 0.0548898987
0.0833592266 0.0104671624 0.0296892952
0.0850687400 0.0105967633 0.0318350606
0.0818500742 0.0094770901 0.0457929187
0.0831240490 0.0103749447 0.0500055365
0.0850687400 0.0105967633 0.0521365218
0.0843291953 0.0095956493 0.0687541813
0.0856660903 0.0060910545 0.0107787671
0.0862778947 0.0067904396 0.0446685366
0.0894362554 0.0065257149 0.0477709584
0.0874252543 0.0081019234 0.0735267252
0.0924567059 0.0021707260 0.0005231919
0.0923264697 0.0023542333 0.0141613306
0.0901489928 0.0013724647 0.0848486274
0.0969619527 0.0000028607 0.0034131827
0.0942919850 0.0010617160 0.0295816492
0.0956114829 -0.0035557663 0.0039218487
0.0967181697 -0.0041251704 0.0161521267
0.1000320241 -0.0089514898 0.0246987753
0.1011738107 -0.0077435193 0.0405101590
0.1031222194 -0.0079164477 0.0420223288
0.1070953608 -0.0100176791 0.0007672134
0.1064774022 -0.0121136419 0.0056093754
0.1075992212 -0.0135455811 0.0001233640
0.1075992212 -0.0135455811 0.0350327305
0.1069753245 -0.0152131207 0.0555900149
0.1106600091 -0.0159093440 0.0567852072
0.1085899249 -0.0149724204 0.0606081299
0.1139155626 -0.0226587839 -0.0132924495
0.1142143831 -0.0222007316 0.0099828066
0.1143518239 -0.0221081339 0.0307376217
0.1155406609 -0.0213069655 0.0488759093
0.1270615458 -0.0328575186 0.0330195241
0.1260632873 -0.0323458984 0.0866857618
0.1259797961 -0.0322056748 0.0931132883
0.1400958747 -0.0461861305 0.0540107302
0.1393584758 -0.0453789309 0.0645158142
0.1416652650 -0.0474697538 0.1668275446
0.1681420356 -0.0750511140 0.0659980625
0.1680294573 -0.0734376088 0.0793100446
0.1692208350 -0.0749027580 0.0895683616
0.1718581617 -0.0771751031 0.0701558441
0.1743316352 -0.0812028721 0.0942522138
0.1913355291 -0.0999557748 0.1192612499
0.1998287588 -0.1067156643 0.1044652313
0.2464437485 -0.1521679163 0.1056662649
0.2621972561 -0.1706690788 -0.0930192396
-0.0975934193 0.1851632744 0.1156737655
-0.0784019157 0.1632535458 0.0905670971
-0.0703340992 0.1598468274 0.0270204637
-0.0565837361 0.1411736459 0.0705653280
-0.0481158867 0.1351741701 0.0809299797
-0.0405633003 0.1255590022 -0.0047310768
-0.0377688594 0.1236133948 0.0255348515
-0.0389152542 0.1233973503 0.0251747202
-0.0406041630 0.1246270239 0.0396624617
-0.0406041630 0.1246270239 0.0653508753
-0.0400367603 0.1240586936 0.0941710323
-0.0350290835 0.1206355691 0.0075480761
-0.0350290835 0.1206355691 0.0257246327
-0.0350335091 0.1206072867 0.0413121991
-0.0340019651 0.1215711460 0.0855541080
-0.0278109293 0.1135962903 0.0155956568
-0.0238203816 0.1127446666 0.0004434409
-0.0234613549 0.1101468876 0.0002195659
-0.0240038466 0.1098197177 0.0400422625
-0.0204091426 0.1069600582 0.0102562727
-0.0206349231 0.1078847125 0.0591660552
-0.0114593012 0.0994598120 0.0189261269
-0.0140596777 0.0984150767 0.0348824076
-0.0134478742 0.0995975509 0.0403085761
-0.0065586767 0.0939567387 0.0308204722
-0.0023373957 0.0905418172 0.0197095703
-0.0012451180 0.0878690332 0.0001424375
0.0044002654 0.0823323876 0.0206153225
0.0025700806 0.0818039477 0.0403688960
0.0076958435 0.0780698881 -0.4425990582
0.0077794730 0.0795032755 0.0046148123
0.0078734187 0.0781089365 0.0255379509
0.0077813696 0.0792638436 0.0545780472
0.0068474719 0.0776521415 0.0598099940
0.0130507797 0.0764085203 0.0006232085
0.0102467919 0.0769010037 0.0337968878
0.0129264463 0.0760023072 0.0308781695
0.0128357466 0.0757060125 0.0438405089
0.0151653709 0.0706588477 0.0200693440
0.0137120634 0.0704359710 0.0303710531
0.0157990921 0.0715574175 0.0303535294
0.0144386329 0.0737077892 0.0334625058
0.0189211052 0.0720417276 -0.4401445389
0.0172549691 0.0680777282 0.0000731769
0.0185147822 0.0689811483 0.0091140093
0.0195142943 0.0680974573 0.0199245047
0.0182292573 0.0689315200 0.0220558308
0.0180135816 0.0707670972 0.0442908220
0.0204216726 0.0641548261 0.0008902373
0.0187689271 0.0669329837 0.0005042377
0.0215272699 0.0636014417 0.0002503219
0.0204216726 0.0641548261 0.0109391036
0.0202888213 0.0643475205 0.0202333890
0.0204216726 0.0641548261 0.0241526198
0.0204216726 0.0641548261 0.0310239624
0.0204216726 0.0641548261 0.0503402762
0.0244485512 0.0604380667 0.0006124797
0.0247724932 0.0610413589 0.0148422541
0.0296393577 0.0593205020 0.0003334107
0.0286650062 0.0592378080 0.0051462473
0.0277576279 0.0575983375 0.0111586871
0.0302166436 0.0584245846 0.0106468024
0.0280932430 0.0565505251 0.0108247818
0.0275133867 0.0586828180 0.0097720446
0.0279428624 0.0594951585 0.0129681649
0.0309172496 0.0545584969 0.0094483914
0.0366971418 0.0504261255 0.0095988335
0.0342629515 0.0510381386 0.0094693722
0.0346178263 0.0499891900 0.0158778261
0.0359491184 0.0528312773 0.0119107785
0.0396397933 0.0478309356 0.0012584749
0.0395196751 0.0475286581 0.0049360814
0.0382972471 0.0477236286 0.0097268643
0.0423832573 0.0445094667 0.0003651204
0.0423832573 0.0445094667 0.0000865283
0.0418310501 0.0442025550 0.0096012177
0.0448518842 0.0402160510 0.0006300035
0.0459784269 0.0410866775 0.0053071799
0.0450074486 0.0406036749 0.0092005553
0.0500014275 0.0375480317 0.0000279966
0.0486566462 0.0366679616 0.0003728690
0.0492575355 0.0369404405 0.0000494542
0.0490261503 0.0368354954 0.0089684548
0.0518474169 0.0367637202 0.0096195759
0.0519163273 0.0335627086 0.0096102776
0.0521153025 0.0337167569 0.0166474413
0.0533552207 0.0354013219 0.0116362395
0.0555110313 0.0298195612 0.0095010819
0.0554132499 0.0329596698 0.0192770790
0.0583593994 0.0272078067 0.0108666243
0.0579414740 0.0289008450 0.0103947939
0.0579789840 0.0270398930 0.0109125199
0.0588231012 0.0264573395 0.0088534178
0.0603302307 0.0272938274 0.0134473862
0.0601258576 0.0267572552 0.0133119645
0.0581424274 0.0270106420 0.0198544096
0.0581424274 0.0270106420 0.0202444624
0.0615644157 0.0247660708 0.0000536266
0.0643562675 0.0254277345 0.0004998269
0.0615644157 0.0247660708 0.0478111319
0.0618909709 0.0229882319 0.0534764342
0.0679489076 0.0214312430 0.0005360665
0.0663719326 0.0200508051 0.0144550325
0.0664010644 0.0209231637 0.0277634691
0.0664768443 0.0187644847 0.0467994027
0.0677822977 0.0181910358 0.0049177231
0.0737750307 0.0136065120 0.0001327815
0.0738397688 0.0131500615 0.0327555947
0.0780912489 0.0126241958 0.0000089231
0.0772501230 0.0094273146 0.0334205441
0.0785940588 0.0118956454 0.0337446742
0.0756353512 0.0096172709 0.0507273488
0.0799012482 0.0081466408 0.0005981746
0.0797633007 0.0078170942 0.0030395808
0.0804153085 0.0065096994 0.0059895338
0.0805733204 0.0061929659 0.0551116280
0.0847452655 0.0036613732 0.0686347336
0.0879566818 -0.0005472400 0.0007542195
0.0860566199 0.0000028581 0.0107426466
0.0862995163 -0.0003071320 0.0157271456
0.0868039280 -0.0010487479 0.0448757224
0.0889706984 -0.0003570312 0.0471620373
0.0913791806 -0.0030529543 0.0190342497
0.0915076584 -0.0053074053 0.0417631976
0.0896945670 -0.0054016295 0.0841722339
0.0948852077 -0.0054695704 0.0051258625
0.0950043574 -0.0067557660 0.0159623455
0.0941193998 -0.0081626698 0.0303526949
0.0986315534 -0.0122740101 0.0180166792
0.1013142467 -0.0135538839 0.0311797690
0.1013193429 -0.0144320978 0.0410654359
0.0996367559 -0.0154116750 0.1385512203
0.1091891304 -0.0207523964 0.0590822510
0.1067055017 -0.0221971069 0.0569366030
0.1141215712 -0.0243374929 -0.0120650707
0.1132390648 -0.0245660543 -0.0123852668
0.1131797209 -0.0243487451 -0.0124833761
0.1133029535 -0.0247998852 -0.0122796474
0.1132897213 -0.0247515850 -0.0123014627
0.1132957935 -0.0247736704 -0.0122914491
0.1127577424 -0.0242370572 0.0051406445
0.1116972864 -0.0260757972 0.0200899672
0.1138056815 -0.0266404375 0.0515609793
0.1209618375 -0.0369774997 0.0088559212
0.1205812991 -0.0364637710 0.0307394098
0.1219916567 -0.0348776616 0.0855376571
0.1224198267 -0.0355691649 0.0904782861
0.1277381331 -0.0387136973 0.0383665375
0.1393585652 -0.0496231206 0.0558851771
0.1390246302 -0.0539840125 0.1724008173
0.1451530457 -0.0582233965 0.0818902105
0.1432106644 -0.0571531169 0.1290666908
0.1494703144 -0.0638500005 0.0576933436
0.1538724601 -0.0667984113 -0.1857136786
0.1596480906 -0.0716564879 0.0232436750
0.1687853187 -0.0828549862 0.0689552873
-0.1136056632 0.1957498640 0.1422167867
-0.0795078278 0.1565649062 -0.1771092415
-0.0549434647 0.1345570087 0.0652606338
-0.0437195934 0.1253933609 0.0006453815
-0.0387255028 0.1223571822 0.1116145402
-0.0208637808 0.0996332094 0.0208813976
-0.0160915554 0.0964311212 0.0202820133
-0.0168799553 0.0961725041 0.0259288382
-0.0138123389 0.0928553790 0.0157279801
-0.0155297602 0.0950058177 0.0324289612
-0.0101738013 0.0886845291 0.0005159202
-0.0099184755 0.0880826712 0.0150683941
-0.0061397371 0.0846467540 0.0106708826
-0.0050109602 0.0864949822 0.0203269552
-0.0069231624 0.0857464522 0.0446377806
-0.0029219172 0.0823243260 -0.1857091188
-0.0037550235 0.0817573741 0.0004191222
-0.0039939117 0.0818140209 0.0405617766
0.0022490507 0.0809037611 -0.4414041042
0.0001698597 0.0796663836 0.0001661601
-0.0002725558 0.0786888748 0.0032770457
-0.0002725558 0.0786888748 0.0045890631
-0.0000586605 0.0782375261 0.0109506669
-0.0000586605 0.0782375261 0.0210289788
0.0000384037 0.0793759525 0.0541884713
0.0004268106 0.0778422207 0.0605524890
-0.0002725558 0.0786888748 0.0591300540
-0.0000586605 0.0782375261 0.0591451935
0.0034346811 0.0746429488 0.0305870604
0.0056645023 0.0725593716 0.0004106584
0.0068674153 0.0717135295 0.0212663244
0.0056795063 0.0725597143 0.0338187031
0.0069608972 0.0704111084 0.0457885079
0.0109391799 0.0688748136 0.0181393456
0.0127390455 0.0706467777 0.0437109880
0.0138254808 0.0633510500 0.0208161902
0.0147594130 0.0649132207 0.0296528172
0.0165887959 0.0617991984 0.0040952982
0.0175073482 0.0605719537 0.0356014483
0.0214914437 0.0569344014 0.0054266276
0.0214914437 0.0569344014 0.0110212388
0.0214914437 0.0569344014 0.0205662083
0.0223677624 0.0572252981 0.0452596955
0.0240232218 0.0531099066 0.0711343363
0.0273085944 0.0503174700 0.0152684273
0.0283184759 0.0521363169 0.0173533987
0.0329504125 0.0483951122 0.0003331723
0.0288394522 0.0491382852 0.0005574050
0.0313972607 0.0472297929 0.0148267569
0.0346048884 0.0442959517 0.0142373862
0.0343438722 0.0442526676 0.0250580143
0.0338601544 0.0434719808 0.0252928566
0.0363374613 0.0413507298 0.0002975287
0.0398005396 0.0422741249 0.0006050887
0.0381473303 0.0414372981 0.0143376412
0.0379320458 0.0406403020 0.0246976446
0.0376514718 0.0401403122 0.0251555275
0.0367469713 0.0407967828 0.0969194248
0.0418516584 0.0371673591 0.0138071598
0.0414649211 0.0371880941 0.0247067045
0.0410227142 0.0367309712 0.0250789952
0.0403845906 0.0371197537 0.0714962557
0.0444115326 0.0363919847 0.0005696836
0.0454700924 0.0368003882 0.0000474277
0.0454699248 0.0339285843 0.0144657912
0.0506473705 0.0300324038 0.0109405341
0.0483829044 0.0299205463 0.0147714438
0.0501013584 0.0315343067 0.0169477295
0.0530032516 0.0240035076 0.0000474277
0.0508110262 0.0266883466 0.0151879610
0.0552945659 0.0240611229 0.0056285681
0.0552240536 0.0227965061 0.0156980585
0.0558134764 0.0264774859 0.0291060042
0.0591272302 0.0183022618 0.0566816144
0.0626652464 0.0162481498 0.0046317400
0.0617047213 0.0158714000 0.0103825005
0.0626276508 0.0180059262 0.0154594006
0.0639216453 0.0164101627 0.0170638394
0.0626205727 0.0183303729 0.0251648258
0.0614102855 0.0181372557 0.0541572385
0.0672441274 0.0165648833 0.0003688159
0.0663645193 0.0153481038 0.0202498268
0.0666044205 0.0129054412 0.0252536368
0.0683813766 0.0130699407 0.0323196463
0.0679553971 0.0104116965 0.0150990309
0.0710652396 0.0123637700 0.0174184870
0.0706524998 0.0095044859 0.0228719544
0.0730543658 0.0062307715 0.0013540807
0.0745080262 0.0047413968 0.0121777924
0.0732118264 0.0065231021 0.0237980913
0.0713623390 0.0062451856 0.0316781811
0.0738706663 0.0091940323 0.0435861163
0.0750355199 0.0028494140 0.0418753438
0.0752206296 0.0027492731 0.0303937029
0.0782386363 0.0038088870 0.0336768441
0.0818703994 -0.0013222046 0.0288047008
0.0805405304 0.0002994876 0.0545900874
0.0801329240 0.0003597155 0.0592647605
0.0820436552 -0.0032050228 0.0352521949
0.0845560655 -0.0040351022 0.0392448716
0.0849528387 -0.0060594156 0.0688087791
0.0880075172 -0.0059014913 0.0002006116
0.0880274102 -0.0058834525 0.0201394390
0.0891815647 -0.0069678933 0.0403811745
0.0870097280 -0.0078005441 0.0452076010
0.0875814930 -0.0072866897 0.0457559638
0.0907634497 -0.0105790356 0.0402274840
0.0893521234 -0.0114835463 0.0841636509
0.0939035192 -0.0152156921 0.0314011388
0.1005464941 -0.0173840206 0.1440178007
0.1026484594 -0.0210609268 0.0226633213
0.1097342148 -0.0264560040 0.0002889457
0.1176407933 -0.0394420363 0.0053329291
0.1230500489 -0.0431698002 0.0935424417
0.1275981516 -0.0479391590 0.0231651161
0.1242799759 -0.0469341874 0.0987382978
0.1334304810 -0.0513455346 0.0789007992
0.1369451582 -0.0571289696 0.0591019206
0.1425536275 -0.0626299754 0.1265823692
0.1431028098 -0.0633463860 0.0743529648
0.1469265372 -0.0667161122 0.0805365890
0.1484796107 -0.0677632466 0.1229473203
0.1538550854 -0.0748181865 0.0309563968
0.1695631444 -0.0892159939 0.0731098503
0.1887906641 -0.1115930676 0.1225027889
0.2078063041 -0.1249493137 0.2262873501
0.3434833288 -0.2647540271 0.2469523996
-0.0999481976 0.1713396609 -0.0029535191
-0.0783713609 0.1552796215 0.0086659295
-0.0775196776 0.1523101032 0.0350037925
-0.0622481257 0.1350715607 0.0701560825
-0.0585034601 0.1285505146 0.0643608421
-0.0505367368 0.1227667555 0.0393729322
-0.0488295220 0.1215241551 0.0951949209
-0.0444339216 0.1177795529 0.0902880281
-0.0347652659 0.1084718406 0.0549458079
-0.0309855361 0.1041906476 0.0637353510
-0.0271280240 0.1010328606 0.0003537955
-0.0208815876 0.0924130529 0.0360412411
-0.0174473356 0.0887126848 0.0252643656
-0.0172423311 0.0923493281 0.0552879684
-0.0174473356 0.0887126848 0.0742574781
-0.0135808475 0.0869926512 0.0284817051
-0.0129726445 0.0865004286 0.0503208749
-0.0097395834 0.0810558423 0.0457888655
-0.0108628813 0.0833081752 0.0687030405
-0.0080714086 0.0794250965 0.0056794705
-0.0072280290 0.0790337026 0.0544162802
-0.0040559517 0.0740656629 0.0302638840
-0.0008251431 0.0731242672 0.0005802932
0.0003497003 0.0729664266 0.0164511036
0.0001246361 0.0704601258 0.0251935553
0.0014831555 0.0697919875 0.0247230045
0.0036131730 0.0670296624 0.0254584383
0.0051865149 0.0683924407 0.0299604964
0.0051865149 0.0683924407 0.0441983752
0.0068983589 0.0649326816 0.0210310332
0.0080589913 0.0649986938 0.0200577807
0.0080686007 0.0645107999 0.0252874922
0.0104949102 0.0610986762 0.0007010522
0.0099298051 0.0621235184 0.0002589049
0.0112827616 0.0600571856 0.0098346295
0.0104849637 0.0610686690 0.0111063542
0.0110308919 0.0601053163 0.0105204405
0.0114973728 0.0603329092 0.0151438536
0.0103610102 0.0600736216 0.0359026007
0.0144716343 0.0588498041 0.0005862536
0.0150663685 0.0583641455 0.0241234135
0.0167034790 0.0541528761 0.0149148526
0.0202927031 0.0525400862 0.0002485337
0.0202947278 0.0497025065 0.0098967375
0.0209901500 0.0513618290 0.0245019030
0.0205905139 0.0504082143 0.0247022938
0.0242313407 0.0458710678 0.0103049101
0.0276246537 0.0437236391 0.0000040355
0.0274673607 0.0429864898 0.0006258311
0.0275538471 0.0423298441 0.0050216736
0.0308977775 0.0409360453 0.0110070528
0.0305783469 0.0397954248 0.0205463003
0.0303655900 0.0393304639 0.0202264618
0.0330096185 0.0374767706 0.0807216242
0.0405459516 0.0302414522 0.0209479164
0.0450948179 0.0270174295 0.0007457557
0.0438198335 0.0279356819 0.0007734122
0.0443487354 0.0276369881 0.0001812997
0.0431300141 0.0271313936 0.0053331675
0.0438989848 0.0265387669 0.0211660694
0.0431239046 0.0275052786 0.0452923588
0.0512461513 0.0206791330 0.0003702464
0.0545154810 0.0211453605 0.0162911247
0.0518885106 0.0191269908 0.0241157841
0.0514152870 0.0198373329 0.0250021052
0.0551438890 0.0175939836 0.0007518354
0.0551169589 0.0158468708 0.0050684037
0.0551169589 0.0158468708 0.0142437043
0.0544420630 0.0186254848 0.0440497212
0.0590514950 0.0144307781 0.0240709614
0.0605829842 0.0133918161 0.0269231629
0.0594896935 0.0139009496 0.0583098941
0.0635126084 0.0104587330 0.0000631633
0.0629982501 0.0078806095 0.0002200427
0.0636178553 0.0105103627 0.0006396594
0.0621923618 0.0100109223 0.0113282027
0.0619801506 0.0104047004 0.0107245268
0.0622454658 0.0100323325 0.0111075463
0.0610105209 0.0095346207 0.0360666327
0.0649713948 0.0075764782 0.0196609329
0.0687064901 0.0031197439 0.0000924888
0.0682882294 0.0031829642 0.0204845499
0.0687064901 0.0031197439 0.0301780533
0.0694647580 0.0033274859 0.0480739884
0.0746617764 0.0008312966 0.0120588662
0.0729172155 -0.0001888679 0.0354844145
0.0742088482 -0.0010448705 0.0370995812
0.0728850588 -0.0005813816 0.0441020541
0.0748449713 -0.0033389656 0.0301619601
0.0774060264 -0.0052423594 0.0328734927
